# .PCD v0.7 - Point Cloud Data file format
VERSION 0.7
FIELDS x y z normal_x normal_y normal_z
SIZE 4 4 4 4 4 4
TYPE F F F F F F
COUNT 1 1 1 1 1 1
WIDTH 846
HEIGHT 1
VIEWPOINT 0 0 0 1 0 0 0
POINTS 846
DATA ascii
-0.219727 0.219727 0.628783 0.761562 0.624151 -0.174522
-0.209249 0.219727 0.625977 0.420093 -0.611167 -0.670818
-0.213867 0.223696 0.625977 -0.695244 -0.302603 0.651972
-0.213867 0.219727 0.630667 -0.913393 0.401189 -0.0689991
-0.219727 0.213867 0.630917 -0.689287 -0.720534 0.0755968
-0.213867 0.213867 0.629116 -0.0511179 -0.684729 -0.727003
-0.208008 0.215167 0.625977 -0.075594 -0.892408 -0.444852
-0.208008 0.213867 0.629703 -0.167448 -0.948665 -0.268321
-0.202148 0.214597 0.625977 0.824273 -0.418899 -0.380916
-0.202148 0.213867 0.627681 0.774185 -0.551464 -0.310685
-0.196289 0.213867 0.627815 -0.627243 0.699435 -0.342574
-0.16801 0.19043 0.561523 -0.227113 -0.889811 0.395798
-0.172852 0.194204 0.561523 0.0664982 -0.977414 -0.200598
-0.166992 0.19043 0.562613 -0.415319 -0.899884 0.133114
-0.158249 0.19043 0.561523 0.333963 -0.64941 -0.68318
-0.155273 0.191644 0.561523 0.263572 -0.431525 -0.862737
-0.155273 0.19043 0.562665 0.227685 -0.713027 -0.663138
-0.149414 0.19043 0.566508 0.695041 -0.353519 -0.626053
-0.0915956 0.19043 0.561523 -0.667313 -0.100701 -0.737938
-0.0966797 0.19043 0.561941 -0.490662 0.235376 -0.838957
-0.195146 0.208008 0.625977 -0.790232 0.258384 -0.555672
-0.219727 0.205094 0.631836 0.257386 0.922519 -0.287596
-0.114644 0.208008 0.631836 0.0927392 -0.280927 -0.955238
-0.114258 0.208008 0.633937 -0.603823 -0.198398 -0.772034
-0.108398 0.208008 0.634617 0.820515 -0.371684 -0.434288
-0.175822 0.196289 0.567383 -0.871548 -0.47524 -0.120627
-0.178711 0.199224 0.567383 -0.734714 -0.566714 0.372868
-0.114258 0.196289 0.570757 -0.0314349 0.395596 -0.917887
-0.219947 0.213867 0.631836 -0.662951 -0.700023 0.265449
-0.219727 0.213867 0.632099 -0.674774 -0.708009 0.208337
-0.220392 0.219727 0.631836 0.800116 0.523736 -0.292431
-0.225586 0.224227 0.631836 -0.511171 -0.802158 -0.30862
-0.213867 0.221166 0.631836 -0.99059 0.121599 -0.0628101
-0.237824 0.19043 0.649414 -0.820562 0.0246509 -0.571026
-0.196289 0.196258 0.649414 -0.193058 0.823051 0.534149
-0.19043 0.19616 0.649414 0.821191 0.549516 0.153875
-0.219727 0.213668 0.631836 -0.660075 -0.704145 0.261688
-0.208008 0.208095 0.631836 0.0313383 -0.839146 0.543003
-0.202148 0.20937 0.631836 -0.227657 -0.964662 0.132666
-0.195342 0.208008 0.631836 -0.948799 -0.295183 -0.112461
-0.196289 0.212316 0.631836 -0.888512 0.43985 -0.130682
-0.172852 0.19331 0.567383 0.120393 -0.988565 -0.0907957
-0.162464 0.19043 0.567383 -0.0937565 -0.57144 -0.81527
-0.166992 0.194059 0.567383 0.302718 -0.915749 -0.264131
-0.148296 0.19043 0.567383 0.63196 -0.154991 -0.759345
-0.143555 0.19043 0.569494 0.565465 0.199333 -0.800323
-0.137695 0.19043 0.572024 0.969009 -0.246993 0.00400194
-0.108398 0.19043 0.572588 0.0748153 -0.990871 -0.112147
-0.102399 0.19043 0.567383 -0.938753 0.338423 -0.0649003
-0.102539 0.190611 0.567383 -0.943782 0.329497 -0.0265828
-0.102539 0.19043 0.568154 -0.935737 0.342994 -0.0821733
-0.102539 0.202148 0.603337 -0.190027 -0.975273 0.112833
-0.243164 0.196289 0.658416 -0.327242 0.86256 -0.38588
-0.131836 0.208008 0.638382 -0.774068 0.631995 -0.037436
-0.176311 0.196289 0.573242 -0.45209 -0.870302 0.195419
-0.172852 0.196289 0.57866 -0.451801 -0.880742 -0.142015
-0.138741 0.196289 0.573242 0.911823 -0.325667 0.250039
-0.137695 0.196289 0.573939 0.801689 -0.518753 0.296967
-0.120117 0.196289 0.576819 -0.320689 -0.851767 -0.414308
-0.241069 0.202148 0.643555 -0.573804 0.539315 0.616351
-0.215161 0.213867 0.637695 -0.566045 -0.310777 -0.763551
-0.219727 0.218309 0.637695 0.307077 -0.269859 -0.912623
-0.239915 0.19043 0.655273 -0.772694 -0.0181118 -0.63452
-0.18993 0.19043 0.655273 0.668285 0.736872 -0.102056
-0.19043 0.190906 0.655273 0.717571 0.688589 -0.104583
-0.231445 0.222914 0.637695 -0.324571 -0.796035 0.510864
-0.22138 0.219727 0.637695 -0.0212816 -0.223176 -0.974546
-0.225586 0.223794 0.637695 -0.373925 -0.907631 -0.190753
-0.213867 0.221646 0.637695 -0.642677 -0.0543943 -0.764204
-0.213867 0.212843 0.637695 0.0594732 -0.869231 -0.490815
-0.208008 0.212898 0.637695 -0.0364454 -0.898874 -0.436689
-0.196153 0.208008 0.637695 -0.850882 -0.220016 0.477066
-0.196289 0.208744 0.637695 -0.824703 -0.177939 0.536846
-0.107271 0.202148 0.608398 0.2234 -0.941492 -0.252361
-0.102539 0.204757 0.608398 0.545533 -0.743582 0.386626
-0.172852 0.19263 0.573242 -0.388493 -0.874624 0.290011
-0.163754 0.19043 0.573242 -0.48402 -0.867162 0.117286
-0.166992 0.193202 0.573242 0.107248 -0.95204 -0.286561
-0.137134 0.19043 0.573242 0.97455 -0.0827221 0.208351
-0.137695 0.194637 0.573242 0.822702 -0.265184 0.502831
-0.120117 0.193613 0.573242 -0.45924 -0.834097 0.305585
-0.109295 0.19043 0.573242 0.136598 -0.920414 -0.366306
-0.114258 0.194278 0.573242 -0.0738166 -0.0793848 -0.994107
-0.114258 0.19043 0.578731 -0.158548 -0.90739 0.389237
-0.102539 0.19043 0.574797 -0.957654 -0.24798 -0.1463
-0.243164 0.200458 0.661133 0.186862 0.620909 -0.761285
-0.130983 0.208008 0.643555 -0.742975 0.470492 -0.476052
-0.131836 0.208008 0.645692 -0.876403 0.268224 -0.399967
-0.18457 0.213867 0.692928 0.359561 0.192351 -0.913081
-0.178711 0.197107 0.579102 -0.393328 -0.873294 0.287491
-0.178711 0.196289 0.583242 -0.680895 -0.730582 0.0513024
-0.172468 0.196289 0.579102 -0.462586 -0.867488 -0.182974
-0.172852 0.196546 0.579102 -0.439171 -0.882416 -0.168732
-0.172852 0.196289 0.581218 -0.50391 -0.847699 -0.165775
-0.136585 0.196289 0.579102 0.731528 -0.646388 -0.216912
-0.117899 0.196289 0.579102 -0.0401226 -0.911899 -0.408448
-0.120117 0.197595 0.579102 -0.0583017 -0.680505 -0.73042
-0.120117 0.196289 0.581307 -0.00903531 -0.948172 -0.317628
-0.19043 0.205108 0.649414 0.00799064 -0.428669 0.903426
-0.216092 0.213867 0.643555 -0.396936 -0.760088 0.514498
-0.219727 0.217365 0.643555 0.0436565 -0.952538 -0.301272
-0.213867 0.213867 0.645903 -0.666128 -0.719083 0.19797
-0.240426 0.19043 0.661133 -0.730954 -0.652938 0.198438
-0.243164 0.193546 0.661133 -0.959704 0.105134 -0.260604
-0.18835 0.19043 0.661133 0.376838 0.654247 -0.655709
-0.19043 0.192443 0.661133 0.412955 0.698252 -0.584733
-0.222282 0.219727 0.643555 -0.881873 -0.281827 -0.377986
-0.225586 0.223064 0.643555 -0.495512 -0.314758 -0.809565
-0.213867 0.212 0.643555 -0.581221 -0.702558 0.410602
-0.208008 0.212188 0.643555 0.0488407 -0.951977 -0.30225
-0.202148 0.21227 0.643555 0.533157 -0.797562 -0.282201
-0.19322 0.208008 0.643555 -0.479944 0.873332 -0.08334
-0.196289 0.212413 0.643555 0.930126 0.349935 -0.111406
-0.108398 0.202148 0.616454 -0.316511 -0.54284 0.777911
-0.163142 0.19043 0.579102 -0.12977 -0.970704 -0.202221
-0.166992 0.19225 0.579102 0.0442161 -0.928442 -0.368836
-0.166992 0.19043 0.581896 0.142406 -0.937614 -0.317176
-0.135555 0.19043 0.579102 0.805549 0.507523 -0.305796
-0.125977 0.19043 0.584548 -0.826872 -0.54549 0.136836
-0.114922 0.19043 0.579102 -0.116326 -0.918184 0.378691
-0.120117 0.19043 0.580681 0.306892 -0.937033 -0.166694
-0.114258 0.19043 0.579192 -0.121695 -0.914326 0.386261
-0.106273 0.19043 0.579102 -0.460653 -0.884731 -0.0710685
-0.108398 0.19043 0.580857 -0.116315 -0.986488 0.115376
-0.101107 0.19043 0.579102 -0.939734 -0.290943 -0.179591
-0.102539 0.193163 0.579102 -0.971846 -0.114768 -0.205775
-0.254883 0.196289 0.669888 0.772359 0.635048 -0.0132799
-0.248335 0.196289 0.666992 -0.985901 0.147288 0.0794119
-0.192077 0.196289 0.666992 0.285455 0.929712 -0.232704
-0.196289 0.198964 0.666992 0.156217 0.896489 -0.414612
-0.179186 0.213867 0.696289 -0.0784249 0.751363 -0.655212
-0.177918 0.213867 0.696289 -0.0797739 0.781628 -0.618622
-0.178711 0.213867 0.696487 -0.130638 0.764307 -0.631481
-0.178711 0.196289 0.585909 -0.635346 -0.772175 0.00897963
-0.134775 0.196289 0.584961 0.381498 -0.676196 -0.630252
-0.123378 0.196289 0.584961 -0.734452 -0.66149 0.151695
-0.102539 0.196289 0.589346 -0.672613 -0.286316 0.68236
-0.208008 0.207091 0.655273 0.616053 -0.238201 0.750826
-0.219727 0.21695 0.649414 0.0963008 -0.964289 -0.246722
-0.210745 0.213867 0.649414 -0.142818 -0.819326 0.555254
-0.213867 0.216884 0.649414 -0.0586456 -0.957535 -0.282289
-0.208008 0.213867 0.652094 -0.0146219 -0.988185 0.15257
-0.202148 0.213867 0.652206 0.154181 -0.9625 0.223206
-0.223146 0.219727 0.649414 -0.830105 -0.30324 -0.467944
-0.225586 0.2224 0.649414 -0.398721 -0.6843 -0.610537
-0.239903 0.19043 0.666992 -0.560096 -0.824414 -0.0814498
-0.243164 0.192352 0.666992 -0.649559 -0.758192 -0.0567319
-0.19043 0.19401 0.666992 0.0916266 0.964164 -0.248985
-0.208008 0.211568 0.649414 -0.0193459 -0.553604 0.832556
-0.208008 0.208008 0.654182 0.742118 0.374978 0.555565
-0.202148 0.211775 0.649414 -0.117339 -0.621771 0.774359
-0.193756 0.208008 0.649414 -0.436906 0.57854 0.68877
-0.196289 0.211951 0.649414 0.706236 -0.0496008 0.706236
-0.111876 0.202148 0.620117 0.800166 -0.571134 0.18314
0.120117 0.219727 0.60676 -0.655882 0.750388 0.0820743
-0.178711 0.195769 0.584961 -0.636757 -0.769997 0.0405575
-0.178711 0.19043 0.590401 -0.801829 0.458615 -0.383069
-0.172475 0.19043 0.584961 -0.713378 -0.699701 0.0388645
-0.172852 0.19169 0.584961 -0.814848 -0.578975 -0.0284721
-0.172852 0.19043 0.585933 -0.722236 -0.691466 -0.0157724
-0.134064 0.19043 0.584961 0.655266 0.00727563 -0.755363
-0.126545 0.19043 0.584961 -0.823393 -0.523872 0.218132
-0.125977 0.191415 0.584961 -0.839259 -0.541902 -0.0445776
-0.125977 0.19043 0.585803 -0.635446 -0.742473 0.211994
-0.118654 0.19043 0.584961 0.0943511 -0.979204 -0.179604
-0.120117 0.19043 0.586988 -0.0357982 -0.988375 -0.147764
-0.114258 0.19356 0.584961 -0.24703 -0.923272 -0.294184
-0.108398 0.193556 0.584961 0.480229 -0.782394 0.396535
-0.101507 0.19043 0.584961 -0.981699 -0.189934 0.0138409
-0.102539 0.192347 0.584961 -0.978184 -0.11505 0.172971
-0.243164 0.202148 0.66362 0.485242 -0.0341468 -0.873713
-0.255793 0.196289 0.672852 0.248564 -0.910761 -0.329743
-0.251486 0.196289 0.672852 -0.384308 0.40172 -0.831221
-0.254883 0.196289 0.67387 -0.274813 -0.823146 -0.496899
-0.247331 0.196289 0.672852 -0.938043 -0.327375 -0.113583
-0.249023 0.196289 0.675672 -0.721514 -0.610991 -0.325742
-0.202148 0.199603 0.672852 0.303838 0.799143 -0.518703
-0.19101 0.196289 0.672852 0.266589 0.605842 -0.749591
-0.196289 0.199643 0.672852 -0.352778 0.651143 -0.671982
-0.19043 0.196289 0.673501 0.341649 0.590212 -0.731386
-0.219727 0.21613 0.655273 -0.508912 -0.765684 0.393366
-0.213867 0.216225 0.655273 0.00413019 -0.983655 -0.180018
-0.208008 0.216513 0.655273 0.0782486 -0.984887 -0.154516
-0.202148 0.216372 0.655273 0.868616 -0.488583 -0.0824247
-0.174237 0.196289 0.59082 -0.68842 -0.673788 0.268493
-0.178711 0.199426 0.59082 -0.730734 -0.274787 0.624915
-0.132029 0.196289 0.59082 0.414675 -0.511402 -0.752671
-0.131836 0.196289 0.591542 0.478744 -0.567644 -0.669764
-0.125835 0.196289 0.59082 -0.849528 -0.267886 -0.454466
-0.125977 0.199987 0.59082 -0.804545 0.0193109 -0.593578
-0.125977 0.196289 0.591392 -0.865054 -0.296665 -0.404564
-0.103909 0.196289 0.59082 -0.0729283 -0.965953 0.248226
-0.108398 0.196289 0.594815 -0.0620349 -0.994099 0.0889888
-0.101893 0.196289 0.59082 -0.0440747 -0.209704 0.976771
-0.102539 0.197316 0.59082 0.422808 -0.539085 0.728437
-0.172852 0.208008 0.670616 -0.628736 -0.628736 0.457583
-0.224108 0.219727 0.655273 -0.311633 -0.880745 0.356614
-0.225586 0.22124 0.655273 -0.248586 -0.968427 -0.0187881
-0.219727 0.219727 0.659715 -0.450968 -0.876664 0.167596
-0.209189 0.208008 0.655273 0.385231 0.312181 0.868412
-0.206758 0.208008 0.655273 0.449393 -0.835826 0.315343
-0.208008 0.209356 0.655273 0.0585564 -0.998284 -0.000445148
-0.208008 0.208008 0.656395 0.201461 -0.792746 0.575297
-0.254883 0.195571 0.672852 0.0757769 -0.821836 -0.564662
-0.240169 0.19043 0.672852 -0.576513 -0.755688 0.310752
-0.243164 0.192247 0.672852 -0.46442 -0.84175 0.275266
-0.19043 0.194164 0.672852 0.47174 0.551355 -0.68809
-0.110301 0.202148 0.625977 -0.205438 -0.526375 -0.82506
-0.114258 0.202148 0.630686 0.137117 -0.787954 -0.600273
-0.17961 0.19043 0.59082 -0.751522 0.589801 -0.295551
-0.178711 0.191206 0.59082 -0.915784 0.167058 -0.365283
-0.134076 0.19043 0.59082 0.670387 -0.735075 -0.101223
-0.120117 0.192579 0.59082 -0.119961 -0.922408 -0.367114
-0.114258 0.191888 0.59082 0.523283 -0.794969 0.30692
-0.108398 0.192601 0.59082 0.533821 -0.561266 0.632467
-0.108398 0.19043 0.595062 -0.5818 0.791856 -0.185667
-0.101647 0.19043 0.59082 -0.685121 0.702672 0.191993
-0.102539 0.19043 0.591789 -0.580843 0.813973 0.00830094
-0.213867 0.215368 0.661133 -0.400038 -0.855486 0.328806
-0.208008 0.215869 0.661133 0.0626263 -0.991107 -0.117406
-0.202148 0.215588 0.661133 0.82072 -0.568773 -0.0540057
-0.260742 0.201001 0.678711 -0.933411 0.1554 0.323411
-0.249851 0.196289 0.678711 -0.591307 -0.741103 0.317998
-0.254883 0.200541 0.678711 -0.615126 -0.779568 -0.117872
-0.249023 0.196289 0.679776 -0.601534 -0.766843 0.22385
-0.196289 0.200269 0.678711 -0.0184679 0.999291 -0.0328023
-0.184626 0.196289 0.678711 0.490421 0.534752 -0.688134
-0.225586 0.220791 0.661133 -0.454969 -0.829771 0.32324
-0.218429 0.219727 0.661133 -0.31086 -0.90027 0.304761
-0.219727 0.220925 0.661133 -0.282914 -0.957268 0.0599783
-0.213867 0.219727 0.666253 -0.398842 -0.479134 0.781892
-0.18457 0.198071 0.59668 -0.849704 -0.503125 -0.157699
-0.18457 0.196289 0.598644 -0.876765 -0.127109 -0.463817
-0.176221 0.196289 0.59668 -0.651175 -0.105851 -0.751509
-0.178711 0.198611 0.59668 0.377852 0.256397 -0.889657
-0.178711 0.196289 0.598945 0.24116 -0.801363 -0.547411
-0.110148 0.196289 0.59668 0.190548 -0.978536 -0.0784749
-0.108398 0.197719 0.59668 0.291377 -0.918111 0.268648
-0.102539 0.196858 0.59668 0.637895 -0.639616 0.428932
-0.102539 0.196289 0.600527 0.0529261 0.140981 0.988597
-0.153341 0.213867 0.719727 0.554729 -0.430024 -0.712289
-0.245581 0.202148 0.672852 -0.942273 0.260879 -0.209915
-0.249023 0.202148 0.677552 -0.863148 -0.0212384 -0.504504
-0.19043 0.202148 0.678678 -0.442504 0.888732 0.119768
-0.243164 0.208008 0.661932 0.524585 0.524585 -0.670538
-0.115455 0.202148 0.631836 0.714427 -0.425213 -0.555687
-0.249023 0.195552 0.678711 -0.567166 -0.756817 0.324884
-0.238704 0.19043 0.678711 -0.597553 -0.788002 0.148269
-0.243164 0.193081 0.678711 -0.358226 -0.929728 0.0853177
-0.237305 0.19043 0.681568 -0.320279 -0.905222 0.279275
-0.208008 0.215329 0.666992 0.0483849 -0.630435 0.774732
-0.202148 0.215173 0.666992 0.512852 -0.578044 0.634703
-0.178711 0.208008 0.687363 0.711963 0.643612 -0.280842
-0.181334 0.19043 0.59668 -0.312887 0.300712 -0.90093
-0.18457 0.19043 0.599645 -0.543754 -0.543096 -0.639827
-0.178711 0.192616 0.59668 -0.614204 -0.180522 -0.768222
-0.133637 0.19043 0.59668 0.483037 -0.772539 -0.412139
-0.131836 0.194338 0.59668 0.568226 -0.615481 -0.546171
-0.125977 0.195843 0.59668 -0.892161 -0.406617 -0.196754
-0.120117 0.190681 0.59668 0.0364036 -0.942147 -0.333217
-0.120117 0.19043 0.597077 0.0661392 -0.956695 -0.283478
-0.112771 0.19043 0.59668 0.479131 0.473849 -0.738851
-0.114258 0.190811 0.59668 0.862974 -0.396408 -0.313268
-0.114258 0.19043 0.598644 0.815868 -0.427613 -0.389239
-0.108398 0.192333 0.59668 -0.667696 0.638237 -0.383192
-0.102539 0.195818 0.59668 0.694515 -0.592825 0.407685
-0.254883 0.20156 0.68457 -0.566662 -0.723606 0.394066
-0.244307 0.196289 0.68457 -0.582789 -0.808308 0.083637
-0.249023 0.200071 0.68457 -0.71258 -0.68381 0.156952
-0.19043 0.200193 0.68457 -0.795297 0.58013 -0.175929
-0.219727 0.220361 0.666992 0.0187876 -0.615522 0.787895
-0.219727 0.219727 0.670378 0.396967 0.235309 0.887157
-0.213194 0.219727 0.666992 -0.269095 -0.298568 0.915666
-0.213867 0.220335 0.666992 -0.247575 -0.271131 0.930158
-0.202148 0.219727 0.672797 -0.55435 -0.55435 0.620799
-0.149488 0.213867 0.725586 0.634457 -0.401648 -0.660412
-0.149414 0.213867 0.725716 0.666209 -0.408394 -0.624003
-0.260742 0.202148 0.68039 -0.994411 -0.0120521 -0.104893
-0.190479 0.202148 0.678711 -0.446659 0.884845 0.132458
-0.187558 0.202148 0.678711 0.196362 0.961256 -0.193464
-0.19043 0.2022 0.678711 -0.449326 0.885019 0.121849
-0.19043 0.202148 0.678761 -0.454902 0.882188 0.12169
-0.172852 0.196289 0.606612 -0.402582 -0.914958 0.0279244
-0.108832 0.196289 0.602539 0.876964 -0.0829384 0.473345
-0.114258 0.196289 0.607976 0.586626 -0.78245 -0.208907
-0.105326 0.196289 0.602539 0.268241 0.573685 0.773907
-0.108398 0.196629 0.602539 0.841888 -0.068559 0.535279
-0.108398 0.196289 0.603198 0.899924 0.194149 0.390441
-0.114299 0.202148 0.637695 0.314027 -0.666588 -0.676053
-0.114258 0.202499 0.637695 0.278446 -0.645866 -0.710862
-0.114258 0.202148 0.637875 0.311804 -0.681523 -0.662045
-0.108398 0.204656 0.637695 0.81069 -0.431779 -0.395409
-0.243164 0.195672 0.68457 -0.502463 -0.862433 0.0611599
-0.232441 0.19043 0.68457 -0.341192 -0.871955 0.351116
-0.237305 0.19127 0.68457 -0.197386 -0.949413 0.244241
-0.231445 0.19043 0.68475 -0.390203 -0.852976 0.346661
-0.208008 0.219364 0.672852 0.713924 0.32502 -0.620222
-0.182181 0.208008 0.69043 -0.212698 0.742544 0.635128
-0.174478 0.208008 0.69043 0.447395 -0.768946 -0.456683
-0.178711 0.212336 0.69043 -0.726114 -0.0571287 -0.685197
-0.178711 0.208008 0.695091 -0.242303 -0.943536 -0.225896
-0.18457 0.19043 0.606129 -0.0287229 -0.984285 0.174234
-0.178711 0.19043 0.606831 0.411987 -0.179091 0.893417
-0.1328 0.19043 0.602539 0.413187 -0.890331 0.191279
-0.137695 0.19043 0.608199 0.63569 -0.763303 -0.115181
-0.131836 0.191292 0.602539 0.506585 -0.815059 0.281158
-0.122148 0.19043 0.602539 -0.184653 -0.738408 0.648581
-0.125977 0.194404 0.602539 -0.710814 -0.610002 0.350202
-0.125977 0.19043 0.606363 -0.394586 -0.248063 -0.884741
-0.108398 0.195128 0.602539 0.942231 0.241764 0.231842
-0.24345 0.196289 0.69043 -0.56302 -0.749026 0.34924
-0.249023 0.201422 0.69043 -0.757844 -0.637491 0.138842
-0.243164 0.196289 0.690665 -0.588798 -0.743112 0.317966
-0.19043 0.198073 0.69043 -0.59907 0.766402 0.231824
-0.225513 0.219727 0.672852 -0.107135 -0.243811 -0.963887
-0.225586 0.219727 0.6729 -0.113977 -0.254432 -0.960351
-0.214278 0.219727 0.672852 -0.317502 0.677062 -0.663912
-0.211634 0.219727 0.672852 -0.0329516 0.751224 -0.659224
-0.213867 0.219727 0.673651 -0.416773 0.696418 -0.584211
-0.204575 0.219727 0.672852 0.955175 -0.209334 -0.209334
-0.255829 0.202148 0.68457 -0.451695 -0.844672 0.287229
-0.254883 0.202148 0.685173 -0.491528 -0.817614 0.299846
-0.185956 0.202148 0.68457 0.161267 0.787569 -0.594751
-0.131836 0.206645 0.643555 -0.888241 0.31339 -0.335878
-0.243164 0.196055 0.69043 -0.598049 -0.720627 0.350761
-0.237305 0.193339 0.69043 -0.0666028 -0.981817 0.177764
-0.226467 0.19043 0.69043 -0.618496 -0.783858 0.0550324
-0.231445 0.193019 0.69043 -0.429395 -0.902831 0.0227204
-0.225586 0.19043 0.692324 -0.66545 -0.739062 0.104704
-0.174405 0.196289 0.608398 -0.135076 -0.986602 -0.0914887
-0.178711 0.196289 0.614004 -0.388174 -0.912173 0.13138
-0.17127 0.196289 0.608398 -0.132907 -0.949008 0.285867
-0.172852 0.197628 0.608398 -0.0581536 -0.989681 -0.130959
-0.166992 0.196289 0.61267 -0.606409 -0.777405 -0.167063
-0.115009 0.196289 0.608398 0.469679 -0.834376 -0.288476
-0.113616 0.196289 0.608398 0.748791 -0.633817 -0.193874
-0.114258 0.196605 0.608398 0.661826 -0.713311 -0.230593
-0.114258 0.196289 0.609068 0.671124 -0.72446 -0.15732
-0.202148 0.213801 0.68457 0.0151652 -0.21598 -0.97628
-0.19043 0.210899 0.68457 0.7619 -0.472032 0.443503
-0.213867 0.218931 0.678711 -0.372357 0.0725818 -0.925247
-0.208008 0.217422 0.678711 0.978937 -0.147788 -0.140859
-0.202148 0.213867 0.684444 0.0194972 -0.194841 -0.980641
-0.18457 0.21216 0.696289 0.312843 -0.312469 -0.896935
-0.172852 0.209997 0.696289 0.445087 -0.671666 -0.592252
-0.178711 0.214378 0.743164 0.00863323 -0.60952 0.792723
-0.18457 0.191763 0.608398 0.436048 -0.809959 0.39221
-0.17734 0.19043 0.608398 0.185842 0.543428 0.818626
-0.178711 0.191463 0.608398 0.61297 -0.356498 0.705107
-0.172852 0.194298 0.608398 -0.406462 -0.831237 0.379254
-0.172852 0.19043 0.613548 0.783507 -0.257027 -0.565732
-0.166992 0.19043 0.61094 -0.435497 -0.886027 0.159056
-0.161133 0.19043 0.610242 -0.220835 -0.975281 -0.0076467
-0.155273 0.19043 0.613814 0.0468978 -0.88397 -0.465185
-0.149414 0.19043 0.613498 0.00561989 -0.999671 0.025038
-0.139285 0.19043 0.608398 0.462777 -0.832959 -0.303342
-0.143555 0.19043 0.611416 -0.0655615 -0.99702 0.040662
-0.137695 0.190719 0.608398 0.6531 -0.741459 -0.153942
-0.137695 0.19043 0.60924 0.672339 -0.729396 -0.126261
-0.13137 0.19043 0.608398 -0.86922 -0.491815 -0.0507417
-0.131836 0.191184 0.608398 -0.651995 -0.747241 -0.128585
-0.114258 0.195583 0.608398 0.567075 -0.744245 -0.352882
-0.238716 0.196289 0.696289 -0.423686 -0.877271 0.225581
-0.243164 0.20024 0.696289 -0.509017 -0.847818 0.148684
-0.237305 0.196289 0.701937 -0.150384 -0.959093 0.239843
-0.19043 0.200009 0.696289 -0.330009 0.519127 -0.788417
-0.260742 0.205482 0.69043 0.00729553 -0.18774 0.982192
-0.249695 0.202148 0.69043 -0.76515 -0.63663 0.0961618
-0.254883 0.205607 0.69043 -0.581208 -0.499371 0.642515
-0.249023 0.202148 0.691757 -0.736748 -0.664996 0.122407
-0.187144 0.202148 0.69043 -0.222966 0.681824 0.696709
-0.18457 0.20512 0.649414 -0.48327 -0.665625 0.568676
-0.237305 0.194216 0.696289 -0.112339 -0.918181 0.379898
-0.231445 0.192738 0.696289 -0.366704 -0.779197 0.508311
-0.224569 0.19043 0.696289 -0.702572 -0.67174 0.234856
-0.225586 0.191365 0.696289 -0.747498 -0.596794 0.29169
-0.260742 0.208008 0.694026 0.144779 -0.956787 -0.252187
-0.254883 0.208008 0.693648 -0.894127 -0.446919 -0.0282792
-0.196289 0.211457 0.69043 0.476546 -0.875354 -0.0816033
-0.18457 0.209164 0.702148 0.163104 -0.33592 -0.927661
-0.18457 0.208008 0.702452 0.389108 -0.239791 -0.889435
-0.178711 0.209555 0.702148 0.0135466 -0.735904 -0.676951
-0.178711 0.208008 0.704571 0.0741473 -0.921314 -0.381685
-0.172852 0.210757 0.702148 0.691213 -0.297923 -0.658381
-0.172852 0.208008 0.707171 0.270303 -0.947134 -0.172837
-0.166992 0.211383 0.702148 0.645663 -0.329249 -0.688996
-0.178968 0.196289 0.614258 -0.347565 -0.932127 0.101673
-0.178711 0.196924 0.614258 -0.414644 -0.874601 0.251283
-0.178711 0.196289 0.615193 -0.257687 -0.960321 0.106686
-0.172852 0.196382 0.614258 -0.0679684 -0.99246 0.101992
-0.172852 0.196289 0.614774 -0.0989241 -0.991908 0.0795708
-0.165617 0.196289 0.614258 -0.563619 -0.75251 -0.340678
-0.166992 0.197498 0.614258 -0.594393 -0.711768 -0.374277
-0.213867 0.21749 0.68457 -0.348268 -0.639737 -0.685161
-0.213867 0.213867 0.690229 -0.0919007 -0.964384 -0.248028
-0.202615 0.213867 0.68457 0.0274763 -0.219929 -0.975129
-0.208008 0.214867 0.68457 0.308542 -0.643785 -0.700245
-0.200946 0.213867 0.68457 0.0283482 -0.146871 -0.988749
-0.19607 0.213867 0.68457 0.215647 0.936506 0.276502
-0.196289 0.213867 0.684994 0.611909 0.790268 -0.0323076
-0.186379 0.213867 0.68457 0.276216 -0.91 -0.309201
-0.19043 0.213867 0.689654 0.403447 -0.459837 -0.791063
-0.18457 0.190783 0.614258 0.176306 -0.793584 0.582358
-0.166992 0.19043 0.61777 -0.842359 -0.166188 -0.512652
-0.161133 0.193054 0.614258 0.0624484 -0.749279 -0.659304
-0.161133 0.19043 0.618586 0.0253459 -0.886841 -0.461379
-0.155273 0.190574 0.614258 0.0475033 -0.846776 -0.529824
-0.155273 0.19043 0.614484 0.0445133 -0.856365 -0.514449
-0.149414 0.191298 0.614258 0.29816 -0.859891 0.414353
-0.149414 0.19043 0.615437 0.625053 -0.767682 -0.141325
-0.14181 0.19043 0.614258 0.00723104 -0.979058 0.203455
-0.143555 0.190778 0.614258 -0.318473 -0.852133 0.415263
-0.143555 0.19043 0.615296 -0.410807 -0.88275 0.228014
-0.135526 0.19043 0.614258 0.390172 -0.783546 -0.483552
-0.128132 0.19043 0.614258 -0.902285 -0.218105 -0.371904
-0.131836 0.194466 0.614258 0.0442916 -0.99345 -0.105331
-0.131836 0.19043 0.618624 -0.614339 -0.269863 -0.741459
-0.246385 0.202148 0.696289 -0.671398 -0.695931 0.254764
-0.249023 0.204729 0.696289 -0.651908 -0.721177 0.23435
-0.243164 0.201353 0.702148 -0.671248 -0.657119 0.342959
-0.23658 0.196289 0.702148 -0.180459 -0.954016 0.23935
-0.237305 0.196384 0.702148 -0.149234 -0.958375 0.243406
-0.175259 0.202148 0.655273 -0.0136122 -0.786694 0.617192
-0.178711 0.205341 0.655273 0.28922 -0.766164 -0.573885
-0.172852 0.202148 0.657772 0.0301511 -0.985961 0.164231
-0.166992 0.202148 0.657653 -0.678166 -0.728648 0.0957187
-0.171118 0.208008 0.708008 0.27015 -0.931745 -0.24263
-0.166992 0.209586 0.708008 0.348786 -0.778615 -0.521639
-0.161133 0.212488 0.708008 0.89333 -0.099205 -0.438315
-0.251933 0.208008 0.696289 -0.737463 -0.57225 0.358718
-0.196289 0.211869 0.696289 -0.0139577 -0.955373 -0.295072
-0.196289 0.208008 0.69914 0.195078 -0.61835 -0.761306
-0.19043 0.211593 0.696289 0.240534 -0.874173 -0.421859
-0.231445 0.195025 0.702148 -0.310611 -0.950092 0.029078
-0.225525 0.19043 0.702148 -0.737556 -0.666487 0.108659
-0.225586 0.190541 0.702148 -0.754492 -0.64802 0.103982
-0.225586 0.19043 0.702855 -0.717753 -0.687465 0.110554
-0.21269 0.213867 0.69043 -0.0729757 -0.976738 -0.201635
-0.207326 0.213867 0.69043 -0.0435108 -0.993848 -0.10185
-0.208008 0.214133 0.69043 -0.0268305 -0.991647 -0.126159
-0.208008 0.213867 0.691451 -0.0180221 -0.983194 -0.181672
-0.191806 0.213867 0.69043 0.405548 -0.460197 -0.789778
-0.19043 0.213867 0.69292 0.695114 -0.378052 -0.611468
-0.170181 0.196289 0.620117 -0.316081 -0.944235 -0.0922629
-0.166 0.196289 0.620117 -0.634059 -0.724262 -0.270949
-0.166992 0.197178 0.620117 -0.655448 -0.701589 -0.279574
-0.108398 0.198712 0.620117 -0.951305 0.287047 -0.112353
-0.170384 0.19043 0.620117 -0.538387 0.784838 -0.30687
-0.172852 0.193648 0.620117 0.492965 -0.867626 -0.064886
-0.172852 0.19043 0.622752 -0.16833 0.833998 -0.525464
-0.166992 0.193851 0.620117 -0.932839 -0.333387 -0.136617
-0.244148 0.202148 0.702148 -0.548062 -0.766558 0.334689
-0.249023 0.206731 0.702148 -0.732914 -0.663279 0.151318
-0.243164 0.202148 0.702977 -0.618945 -0.724441 0.303467
-0.232462 0.196289 0.708008 -0.462887 -0.83642 0.293493
-0.237305 0.19837 0.708008 -0.339493 -0.768912 0.541774
-0.231445 0.196289 0.711575 -0.466652 -0.859201 0.209786
-0.178711 0.204864 0.661133 -0.561982 -0.635535 0.529407
-0.172852 0.205145 0.661133 0.202076 -0.942895 -0.26479
-0.16371 0.202148 0.661133 -0.324469 -0.745898 0.581683
-0.166992 0.205214 0.661133 0.318264 -0.750134 -0.57966
-0.161133 0.202148 0.663737 -0.676313 -0.731705 0.0848995
-0.161133 0.209828 0.713867 0.791395 -0.529415 -0.305635
-0.260742 0.209913 0.702148 0.077975 -0.281112 0.956502
-0.250297 0.208008 0.702148 -0.669293 -0.732309 0.125582
-0.254883 0.210576 0.702148 -0.566789 -0.334674 0.752823
-0.249023 0.208008 0.704657 -0.615332 -0.619237 0.487762
-0.190442 0.208008 0.702148 -0.460903 -0.105283 -0.881183
-0.19043 0.208015 0.702148 -0.461027 -0.104446 -0.881218
-0.19043 0.208008 0.702159 -0.463244 -0.101386 -0.880413
-0.169833 0.196289 0.625977 -0.196393 -0.71188 0.674283
-0.166753 0.196289 0.625977 -0.282999 -0.291293 0.913816
-0.166992 0.196516 0.625977 -0.260576 -0.281784 0.923417
-0.166992 0.196289 0.62811 -0.0891745 -0.102845 0.990692
-0.225953 0.19043 0.708008 -0.611389 -0.778421 0.142352
-0.231445 0.195451 0.708008 -0.459503 -0.843758 0.277362
-0.225586 0.19043 0.710075 -0.554952 -0.823517 0.117679
-0.18457 0.192509 0.625977 -0.022723 -0.0106918 0.999685
-0.18457 0.19043 0.628628 -0.0725316 0.987714 0.138418
-0.17626 0.19043 0.625977 -0.554896 0.695078 -0.457118
-0.178711 0.192232 0.625977 -0.708847 0.174805 0.683358
-0.178711 0.19043 0.62753 -0.625599 0.768998 0.13141
-0.166992 0.195762 0.625977 -0.364388 -0.2598 0.894274
-0.239658 0.202148 0.708008 -0.502691 -0.509772 0.698165
-0.243164 0.205343 0.708008 -0.490633 -0.244621 0.836325
-0.237305 0.202148 0.713514 -0.729203 -0.657384 0.190028
-0.260742 0.213867 0.706797 -0.448793 0.643874 0.619687
-0.254883 0.213867 0.706301 -0.831109 0.178108 0.526816
-0.155273 0.21215 0.719727 0.85008 -0.0173839 -0.526367
-0.172852 0.20476 0.666992 -0.198451 -0.339353 0.919487
-0.166992 0.204847 0.666992 -0.519135 -0.711723 0.473233
-0.158103 0.202148 0.666992 -0.962656 0.00616356 -0.270657
-0.161133 0.205074 0.666992 0.265276 -0.785452 -0.55919
-0.230616 0.196289 0.713867 -0.545796 -0.835913 -0.0579326
-0.231445 0.196864 0.713867 -0.511171 -0.859063 -0.0267563
-0.247459 0.208008 0.708008 -0.191538 -0.035237 0.980852
-0.249023 0.20955 0.708008 0.0288229 -0.142544 0.989369
-0.243164 0.208008 0.711909 -0.902509 0.345251 0.257448
-0.114258 0.201025 0.631836 0.170785 -0.260424 -0.950269
-0.224073 0.19043 0.713867 -0.485549 -0.864602 0.12925
-0.225586 0.191359 0.713867 -0.5269 -0.846563 0.0755523
-0.225586 0.19043 0.716478 -0.29266 -0.955582 0.034832
-0.266602 0.219727 0.722434 -0.347305 0.846601 -0.403294
-0.260742 0.219727 0.723372 0.954624 0.258524 -0.147846
-0.251588 0.219727 0.719727 -0.315568 -0.856151 0.409173
-0.249023 0.219727 0.723349 0.450812 -0.864858 0.220882
-0.243164 0.219727 0.722585 -0.705006 -0.705006 -0.0770332
-0.252911 0.213867 0.708008 -0.76186 0.141977 0.631991
-0.249023 0.213867 0.712605 0.394004 -0.914277 -0.0941155
-0.243164 0.213867 0.711038 -0.699356 -0.69783 0.154709
-0.236803 0.202148 0.713867 -0.73318 -0.662759 0.15231
-0.237305 0.202623 0.713867 -0.739371 -0.650703 0.172963
-0.155273 0.19043 0.643267 -0.336159 -0.421411 0.842265
-0.149414 0.19043 0.643396 -0.466451 -0.666955 0.581029
-0.158445 0.202148 0.672852 -0.367707 -0.269429 0.890056
-0.161133 0.204823 0.672852 -0.00927784 -0.334221 0.942449
-0.155273 0.202148 0.676148 -0.84936 -0.283051 0.445499
-0.229018 0.196289 0.719727 -0.674188 -0.738325 -0.0186025
-0.231445 0.198286 0.719727 -0.578975 -0.812809 0.0642722
-0.240457 0.208008 0.713867 -0.937885 0.0322023 -0.345449
-0.178711 0.210286 0.731445 0.475699 -0.739879 0.475699
-0.226063 0.19043 0.719727 -0.516779 -0.854086 0.0589606
-0.225586 0.19043 0.722133 -0.492871 -0.832767 0.252146
-0.249023 0.215918 0.713867 0.300979 -0.74005 -0.601446
-0.269782 0.219727 0.725586 -0.145938 0.917721 -0.369446
-0.266602 0.221789 0.725586 -0.532622 0.675048 -0.510513
-0.258053 0.219727 0.725586 0.27103 0.754904 0.597213
-0.249023 0.221596 0.725586 0.498964 -0.665263 0.555392
-0.155273 0.191136 0.643555 -0.443553 -0.427123 0.787925
-0.149046 0.19043 0.643555 -0.483059 -0.657246 0.578516
-0.149414 0.190947 0.643555 -0.426627 -0.729315 0.534873
-0.143555 0.19043 0.647727 -0.635554 -0.771925 -0.0142341
-0.235518 0.202148 0.719727 -0.743871 -0.668322 0.00128051
-0.237305 0.204387 0.719727 -0.771903 -0.634717 -0.0360476
-0.18457 0.202148 0.678875 0.881235 0.388954 -0.268587
-0.152683 0.202148 0.678711 -0.0715431 -0.335601 0.939284
-0.149414 0.202148 0.681748 0.0661187 -0.904082 0.422214
-0.228179 0.196289 0.725586 -0.684608 -0.728886 0.00605597
-0.231445 0.199412 0.725586 -0.70614 -0.686114 0.174968
-0.238733 0.208008 0.719727 -0.759642 -0.647906 -0.0562274
-0.223362 0.19043 0.725586 -0.458337 -0.826584 0.326629
-0.225586 0.191858 0.725586 -0.436442 -0.857521 0.272353
-0.219727 0.19043 0.729475 -0.370344 -0.888029 0.272489
-0.249023 0.216797 0.719727 0.11039 -0.208463 0.97178
-0.241585 0.213867 0.719727 -0.574242 0.791572 0.20895
-0.243164 0.215561 0.719727 -0.372297 0.300268 0.878199
-0.18457 0.19043 0.653098 0.639106 0.639106 0.427886
-0.140563 0.19043 0.649414 -0.590336 -0.762725 -0.264109
-0.143555 0.192836 0.649414 -0.746227 -0.579995 -0.326729
-0.234683 0.202148 0.725586 -0.623494 -0.745875 0.234363
-0.237305 0.205191 0.725586 -0.782287 -0.595523 0.182701
-0.183324 0.202148 0.68457 0.371863 -0.418319 -0.82869
-0.18457 0.203802 0.68457 -0.310496 0.0119777 -0.950499
-0.238839 0.208008 0.725586 -0.755509 -0.62816 0.186068
-0.27832 0.224497 0.731445 -0.427225 -0.300239 0.85284
-0.268744 0.219727 0.731445 -0.105839 -0.580665 -0.807234
-0.272461 0.225178 0.731445 0.0143325 0.850212 -0.526246
-0.266602 0.225493 0.731445 0.137884 0.971984 -0.190357
-0.258815 0.219727 0.731445 0.499742 0.494769 -0.710958
-0.260742 0.221153 0.731445 0.656563 0.239554 -0.71522
-0.260742 0.219727 0.734799 0.703313 -0.64471 -0.299498
-0.249023 0.219727 0.736775 0.504994 0.726881 -0.46543
-0.243111 0.219727 0.731445 -0.786619 0.589635 0.183195
-0.227869 0.196289 0.731445 -0.578502 -0.787814 0.211386
-0.231445 0.20126 0.731445 -0.783025 -0.610208 0.120491
-0.225586 0.196289 0.736135 -0.552589 -0.795433 0.248861
-0.225586 0.194804 0.731445 -0.466967 -0.868918 0.164082
-0.217768 0.19043 0.731445 -0.293939 -0.926543 0.234773
-0.219727 0.191363 0.731445 -0.353523 -0.916115 0.189089
-0.213867 0.19043 0.734085 -0.24862 -0.959951 0.12916
-0.266602 0.216009 0.725586 0.471296 -0.585523 0.659578
-0.260742 0.217101 0.725586 0.997813 0.0239636 0.0616018
-0.241804 0.213867 0.725586 -0.899599 0.120399 -0.419792
-0.139435 0.19043 0.655273 -0.840289 -0.459298 -0.288027
-0.143555 0.193891 0.655273 -0.752076 -0.650097 0.10842
-0.237758 0.208008 0.731445 -0.755221 -0.625303 0.196562
-0.237305 0.208008 0.733292 -0.75111 -0.63972 0.163071
-0.232337 0.202148 0.731445 -0.728862 -0.661981 0.174762
-0.237305 0.207472 0.731445 -0.751365 -0.628536 0.20098
-0.231445 0.202148 0.734075 -0.820442 -0.557271 0.127764
-0.155273 0.199526 0.666992 0.149642 -0.974558 -0.166868
-0.182058 0.202148 0.69043 0.118922 -0.894515 0.430929
-0.18457 0.205104 0.69043 -0.879649 -0.148501 0.451846
-0.18457 0.202148 0.693615 0.116068 -0.904995 -0.409283
-0.178711 0.204979 0.69043 0.686717 -0.498131 0.529419
-0.14065 0.202148 0.69043 -0.365525 0.930715 -0.0127148
-0.224852 0.196289 0.737305 -0.55243 -0.78843 0.270554
-0.225586 0.196817 0.737305 -0.557724 -0.781945 0.278399
-0.26817 0.219727 0.737305 0.00835879 -0.942481 0.334156
-0.262472 0.219727 0.737305 0.386115 -0.871219 0.303137
-0.266602 0.219727 0.740145 0.289368 -0.923711 0.251045
-0.260742 0.220095 0.737305 0.757203 -0.631255 0.167809
-0.25398 0.219727 0.737305 0.263018 0.795415 -0.546019
-0.248106 0.219727 0.737305 0.273366 0.700054 -0.659693
-0.249023 0.22038 0.737305 0.429496 0.664017 -0.612058
-0.241639 0.219727 0.737305 -0.550561 0.779298 0.299293
-0.266602 0.217759 0.731445 0.437984 -0.890701 -0.121741
-0.260742 0.218873 0.731445 0.72521 0.0523374 -0.686536
-0.240293 0.213867 0.731445 -0.697833 -0.7018 0.143197
-0.219727 0.193932 0.737305 -0.342914 -0.912032 0.22496
-0.210181 0.19043 0.737305 -0.50005 -0.848636 0.172532
-0.213867 0.191764 0.737305 -0.244554 -0.934761 0.25771
-0.18457 0.19043 0.663792 0.888607 0.319431 -0.329152
-0.158036 0.19043 0.661133 0.0784778 0.995037 -0.0611747
-0.149414 0.19043 0.663181 -0.0350719 0.998961 -0.0291002
-0.142218 0.19043 0.661133 -0.95839 0.148591 0.243741
-0.143555 0.192129 0.661133 -0.840003 0.00876412 0.542512
-0.143555 0.19043 0.662908 -0.849517 0.514175 0.118093
-0.236311 0.208008 0.737305 -0.668384 -0.727865 0.153215
-0.237305 0.209206 0.737305 -0.859363 -0.488201 0.152167
-0.161133 0.196289 0.675955 0.453374 0.855263 -0.250952
-0.230742 0.202148 0.737305 -0.756294 -0.63476 0.158425
-0.231445 0.203148 0.737305 -0.822875 -0.553604 0.128061
-0.18457 0.202148 0.698486 0.477599 0.490101 -0.729177
-0.140876 0.202148 0.696289 -0.26374 0.757073 0.59773
-0.221952 0.196289 0.743164 -0.361357 -0.904064 0.228231
-0.225586 0.199235 0.743164 -0.707561 -0.698611 0.106301
-0.219727 0.196289 0.745927 -0.265845 -0.931426 0.24854
-0.266602 0.218633 0.737305 0.220068 -0.926046 0.306609
-0.249023 0.218524 0.737305 0.780444 0.410626 -0.471481
-0.240113 0.213867 0.737305 -0.573421 -0.627242 0.527025
-0.272461 0.225157 0.743164 -0.76784 -0.576334 -0.279753
-0.266602 0.220617 0.743164 0.535776 -0.833468 0.135187
-0.260742 0.221162 0.743164 -0.702511 -0.537426 -0.466532
-0.254699 0.219727 0.743164 0.354989 -0.652532 -0.669466
-0.254883 0.220111 0.743164 0.368356 -0.280606 -0.886326
-0.254883 0.219727 0.743934 0.235593 -0.882532 -0.406981
-0.245705 0.219727 0.743164 -0.462408 0.543087 -0.700882
-0.249023 0.223429 0.743164 0.441944 0.517743 -0.732549
-0.249023 0.219727 0.747491 0.660542 -0.500774 -0.559383
-0.241093 0.219727 0.743164 -0.491907 0.861065 0.12882
-0.18457 0.193975 0.666992 0.832287 0.497316 -0.244897
-0.157426 0.19043 0.666992 -0.03596 0.957474 -0.286269
-0.153346 0.19043 0.666992 -0.0956088 0.994968 -0.0299665
-0.155273 0.19043 0.668882 -0.0258673 0.981329 -0.190591
-0.143555 0.19043 0.671253 -0.912886 -0.371119 0.170028
-0.219727 0.194768 0.743164 -0.343549 -0.867785 0.359058
-0.209197 0.19043 0.743164 -0.604754 -0.773875 0.188124
-0.213867 0.193394 0.743164 -0.249319 -0.895531 0.368599
-0.208008 0.19043 0.746062 -0.648075 -0.693451 0.31484
-0.235445 0.208008 0.743164 -0.599414 -0.738279 0.309267
-0.237305 0.210098 0.743164 -0.897538 -0.268143 0.350036
-0.18457 0.196289 0.678755 0.490698 0.54382 -0.680791
-0.178711 0.196289 0.68123 0.41555 0.868567 -0.270018
-0.156546 0.196289 0.678711 -0.104018 0.962414 -0.250878
-0.161133 0.199496 0.678711 0.206985 0.882977 -0.421318
-0.155273 0.196289 0.679977 0.176795 0.974462 0.138446
-0.147269 0.196289 0.678711 -0.134231 0.980692 -0.142213
-0.149414 0.196707 0.678711 0.478509 0.749102 0.458122
-0.229644 0.202148 0.743164 -0.6335 -0.700173 0.329295
-0.231445 0.204187 0.743164 -0.79746 -0.507555 0.326259
-0.18457 0.207638 0.702148 0.391855 -0.193134 -0.899527
-0.164102 0.202148 0.702148 0.540475 -0.491879 -0.682599
-0.166992 0.207094 0.702148 0.445126 -0.881295 0.158685
-0.225586 0.200368 0.749023 -0.590936 -0.670102 0.449175
-0.215959 0.196289 0.749023 -0.129229 -0.943829 0.304117
-0.219727 0.197673 0.749023 -0.384333 -0.77896 0.49549
-0.213867 0.196289 0.750812 -0.345966 -0.927283 0.143014
-0.249023 0.21651 0.743164 0.876229 -0.286848 0.387223
-0.240869 0.213867 0.743164 -0.801394 -0.411754 0.433851
-0.183255 0.208008 0.790039 -0.607522 0.4946 0.621521
-0.18457 0.195005 0.672852 0.856085 0.416287 -0.306307
-0.178711 0.192844 0.672852 0.127504 0.96413 -0.232801
-0.161133 0.192603 0.672852 0.362477 0.438628 -0.822323
-0.144894 0.19043 0.672852 -0.725093 -0.597684 0.342072
-0.142167 0.19043 0.672852 -0.836472 -0.361831 0.411573
-0.143555 0.1957 0.672852 -0.83947 0.212446 0.500157
-0.23418 0.208008 0.749023 -0.738558 -0.626971 0.247871
-0.237305 0.212189 0.749023 -0.980314 0.0787043 0.181082
-0.213867 0.195334 0.749023 -0.32355 -0.928594 0.18174
-0.206554 0.19043 0.749023 -0.508208 -0.727179 0.461449
-0.208008 0.191804 0.749023 -0.556716 -0.719997 0.414333
-0.178711 0.200011 0.68457 0.427657 0.132316 -0.894205
-0.161133 0.199981 0.68457 0.255587 0.953435 0.160113
-0.14957 0.196289 0.68457 -0.26388 0.963962 -0.0338289
-0.155273 0.199656 0.68457 0.916532 0.359775 0.174731
-0.149256 0.196289 0.68457 -0.278473 0.959805 -0.0350364
-0.272461 0.224434 0.749023 -0.568403 -0.812065 0.132168
-0.266602 0.220341 0.749023 0.319332 -0.946507 0.0463827
-0.257052 0.219727 0.749023 -0.209613 -0.923558 0.321098
-0.260742 0.222147 0.749023 -0.450331 -0.892482 0.0260352
-0.260742 0.219727 0.752335 0.43627 -0.889763 -0.134129
-0.252675 0.219727 0.749023 -0.0200441 -0.94356 -0.330595
-0.254883 0.219727 0.750054 -0.41574 -0.909457 -0.00692271
-0.249023 0.221203 0.749023 0.844676 -0.115274 -0.522718
-0.249023 0.219727 0.753006 0.707902 -0.706061 -0.0187542
-0.242586 0.219727 0.749023 -0.666485 0.435782 -0.60489
-0.243164 0.219727 0.749899 -0.711069 0.342121 -0.614276
-0.231749 0.219727 0.749023 0.562768 0.53465 -0.63043
-0.231445 0.219727 0.749469 0.534189 0.534189 -0.655197
-0.228264 0.202148 0.749023 -0.623754 -0.732989 0.271401
-0.231445 0.205196 0.749023 -0.699964 -0.694482 0.166568
-0.225586 0.202148 0.754258 -0.466804 -0.86207 0.197306
-0.272461 0.213867 0.754805 -0.0512042 -0.335856 0.940521
-0.254883 0.218557 0.749023 -0.318293 -0.943862 0.0883954
-0.238772 0.213867 0.749023 -0.977944 0.142227 -0.152962
-0.231445 0.219603 0.749023 0.493797 0.645864 -0.582258
-0.219727 0.199782 0.754883 -0.566427 -0.770059 0.293547
-0.211226 0.196289 0.754883 -0.48014 -0.815977 0.321943
-0.213867 0.198082 0.754883 -0.430934 -0.827463 0.36
-0.208008 0.196289 0.760087 -0.612539 -0.740702 0.275965
-0.19043 0.196289 0.759096 -0.90852 -0.417705 -0.010707
-0.2346 0.208008 0.754883 -0.81558 -0.57851 0.0124781
-0.237305 0.210622 0.754883 -0.760987 -0.64722 0.0447676
-0.18457 0.196231 0.678711 0.486775 0.529929 -0.694424
-0.178711 0.193468 0.678711 0.340537 0.47748 -0.809968
-0.172852 0.193319 0.678711 -0.466904 0.74627 -0.474428
-0.155273 0.194788 0.678711 0.163599 0.905966 -0.390463
-0.146456 0.19043 0.678711 -0.0499389 -0.602074 -0.796877
-0.149414 0.195682 0.678711 0.14929 0.968125 0.201111
-0.13971 0.19043 0.678711 -0.76197 -0.0509426 -0.645606
-0.143555 0.195296 0.678711 -0.758303 0.497019 -0.421838
-0.143555 0.19043 0.682542 -0.0576205 -0.74148 -0.668497
-0.166992 0.198257 0.69043 0.779141 0.570854 -0.258968
-0.155273 0.199708 0.69043 0.848941 0.129485 -0.512379
-0.143555 0.199192 0.69043 -0.991038 0.128748 -0.035609
-0.202525 0.19043 0.754883 0.0464649 -0.943993 0.326679
-0.208008 0.194471 0.754883 -0.480507 -0.856176 0.189936
-0.202148 0.19043 0.755513 0.0867329 -0.941873 0.324581
-0.196289 0.19043 0.759756 0.152066 -0.97046 0.187308
-0.231445 0.205839 0.754883 -0.644129 -0.750399 0.148322
-0.225108 0.202148 0.754883 -0.410071 -0.888967 0.203911
-0.225586 0.202353 0.754883 -0.489446 -0.848636 0.200646
-0.225586 0.202148 0.755906 -0.433912 -0.878578 0.199553
-0.27832 0.219727 0.757248 0.835521 -0.495555 -0.23734
-0.272461 0.22411 0.754883 -0.51564 -0.829169 0.215856
-0.265323 0.219727 0.754883 0.10097 -0.812887 -0.573602
-0.266602 0.220266 0.754883 -0.00629804 -0.873645 -0.486523
-0.266602 0.219727 0.755971 -0.0704287 -0.880388 -0.468996
-0.259463 0.219727 0.754883 0.221183 -0.856702 -0.465982
-0.24986 0.219727 0.754883 0.288925 -0.573297 0.766716
-0.254883 0.222926 0.754883 -0.209382 0.285657 0.935179
-0.254883 0.219727 0.759243 0.0283467 0.782904 -0.621497
-0.272277 0.213867 0.754883 -0.0475696 -0.594321 0.80282
-0.272461 0.213966 0.754883 -0.220233 -0.437799 0.871682
-0.260742 0.218208 0.754883 0.497907 -0.697561 -0.515264
-0.249023 0.218559 0.754883 0.464565 -0.846379 0.260427
-0.240769 0.213867 0.754883 -0.72773 -0.611822 -0.309971
-0.243164 0.21647 0.754883 -0.858382 -0.491072 -0.148421
-0.181783 0.208008 0.807617 0.62179 0.660431 0.42096
-0.18457 0.211852 0.807617 0.77108 0.155839 -0.617374
-0.18457 0.208008 0.812856 0.477854 -0.75645 -0.446586
-0.16504 0.208008 0.807617 0.782769 -0.621584 0.0300902
-0.149713 0.208008 0.807617 0.491959 0.682326 -0.540747
-0.235714 0.208008 0.760742 -0.568909 -0.818997 0.074743
-0.237305 0.209641 0.760742 -0.522427 -0.843567 -0.124354
-0.202185 0.208008 0.760742 0.568986 -0.581487 -0.581487
-0.18457 0.200472 0.696289 0.378684 0.41935 -0.825072
-0.143555 0.197222 0.696289 -0.965126 0.25213 -0.0704413
-0.172852 0.19043 0.688651 -0.944372 0.22962 0.235449
-0.149414 0.196145 0.68457 -0.298845 0.953636 -0.0356452
-0.149414 0.19043 0.689861 -0.920225 -0.289383 0.263521
-0.225586 0.201742 0.760742 -0.150954 -0.957875 0.244313
-0.219727 0.200916 0.760742 -0.263806 -0.896129 0.356874
-0.213867 0.199541 0.760742 -0.499204 -0.813985 0.297027
-0.207557 0.196289 0.760742 -0.598689 -0.752996 0.273072
-0.208008 0.196668 0.760742 -0.62557 -0.729733 0.275957
-0.194306 0.196289 0.760742 0.501584 -0.0245954 -0.864759
-0.19043 0.196289 0.763743 -0.00211741 0.864419 -0.502768
-0.202148 0.193101 0.760742 0.0931645 -0.987694 -0.125623
-0.19454 0.19043 0.760742 -0.33425 -0.573646 -0.747802
-0.196289 0.191563 0.760742 0.28673 -0.781172 -0.554578
-0.19043 0.19174 0.760742 -0.41093 0.0557279 -0.909962
-0.19043 0.19043 0.764776 -0.216674 -0.890295 0.400533
-0.22704 0.202148 0.760742 -0.41663 -0.891588 0.177454
-0.231445 0.205593 0.760742 -0.592853 -0.793615 0.136748
-0.219727 0.202148 0.764638 -0.16518 -0.916441 0.364488
-0.213867 0.202148 0.766193 -0.295718 -0.542614 0.786206
-0.202148 0.207969 0.760742 -0.419403 0.805111 -0.419403
-0.277789 0.219727 0.760742 0.444185 -0.0187875 -0.895738
-0.267646 0.219727 0.760742 -0.322067 -0.940848 -0.105255
-0.272461 0.219727 0.764016 -0.671522 0.664174 0.328529
-0.249023 0.224526 0.760742 -0.420861 -0.152252 -0.894257
-0.266602 0.219048 0.760742 -0.115687 -0.991926 -0.0519601
-0.260742 0.218265 0.760742 0.0811574 -0.977918 -0.192586
-0.254883 0.218983 0.760742 -0.0971293 -0.603372 -0.791523
-0.249023 0.217088 0.760742 0.308241 -0.945514 0.104838
-0.242496 0.213867 0.760742 -0.810864 -0.53783 -0.230733
-0.243164 0.215688 0.760742 -0.868944 -0.450231 -0.205497
-0.243164 0.213867 0.764255 -0.837094 -0.529095 0.13904
-0.243164 0.213771 0.766602 -0.745403 -0.614678 0.257965
-0.232519 0.208008 0.766602 -0.587182 -0.799709 -0.125234
-0.237305 0.20985 0.766602 -0.459226 -0.888309 -0.00433919
-0.171219 0.19043 0.69043 -0.653552 0.642219 0.40053
-0.149933 0.19043 0.69043 -0.956192 -0.197658 0.215933
-0.155273 0.19043 0.69504 -0.663716 0.52997 -0.527838
-0.148024 0.19043 0.69043 -0.749176 -0.357021 0.557917
-0.149414 0.19043 0.692494 -0.916582 0.374211 0.14087
-0.164049 0.208008 0.813477 0.11564 -0.684142 -0.720123
-0.161133 0.208008 0.817901 0.43811 -0.898881 -0.00856505
-0.154729 0.208008 0.813477 -0.323752 -0.346825 -0.880282
-0.155273 0.208008 0.814763 -0.209699 -0.675771 -0.706654
-0.225586 0.20203 0.766602 -0.334046 -0.882098 0.332138
-0.203984 0.196289 0.766602 -0.407224 -0.806309 0.428993
-0.208008 0.199942 0.766602 -0.773595 -0.293407 0.56166
-0.202148 0.196289 0.768759 -0.435061 -0.807924 0.397468
-0.202148 0.194535 0.766602 -0.456162 -0.756406 0.468793
-0.196289 0.193971 0.766602 0.313725 -0.93648 0.156787
-0.189147 0.19043 0.766602 -0.161514 -0.865139 0.474814
-0.19043 0.191135 0.766602 -0.155509 -0.89359 0.421086
-0.156245 0.196289 0.708008 -0.35373 0.794987 -0.492819
-0.154322 0.196289 0.708008 -0.396887 0.893946 -0.208186
-0.155273 0.196289 0.709165 -0.313602 0.882078 -0.351557
-0.272461 0.223779 0.766602 -0.85154 -0.510666 -0.118745
-0.266602 0.219727 0.76717 -0.334872 -0.907788 0.252549
-0.260742 0.219727 0.771072 0.125114 -0.986833 0.102503
-0.254883 0.219727 0.769102 -0.297539 -0.954556 0.0171126
-0.249023 0.219727 0.770604 -0.310439 -0.944581 -0.106744
-0.225746 0.202148 0.766602 -0.328182 -0.882849 0.335968
-0.231445 0.207823 0.766602 -0.575055 -0.812773 -0.0933368
-0.223902 0.202148 0.766602 -0.261896 -0.951245 0.162918
-0.225586 0.202148 0.766749 -0.340014 -0.885587 0.316428
-0.219727 0.202828 0.766602 0.10647 -0.827301 0.551577
-0.213589 0.202148 0.766602 -0.249528 -0.488227 0.836284
-0.213867 0.202357 0.766602 -0.252077 -0.470258 0.845763
-0.208008 0.202148 0.770883 -0.705508 0.211912 0.676278
-0.260742 0.219103 0.766602 0.274516 -0.906953 0.319495
-0.254883 0.218122 0.766602 -0.202672 -0.867736 0.453826
-0.243422 0.213867 0.766602 -0.721183 -0.639061 0.267387
-0.249023 0.218478 0.766602 -0.283803 -0.952784 -0.107978
-0.243164 0.213867 0.766728 -0.745218 -0.622365 0.2394
-0.232541 0.208008 0.772461 -0.499297 -0.795669 0.342948
-0.237305 0.211847 0.772461 -0.399082 -0.91568 0.0475799
-0.231445 0.208008 0.773601 -0.577271 -0.780797 0.238986
-0.175054 0.19043 0.696289 0.267324 0.393332 -0.879675
-0.170632 0.19043 0.696289 -0.332496 0.881082 0.336366
-0.172852 0.19043 0.698273 0.376841 0.896133 -0.234386
-0.156924 0.19043 0.696289 0.0316938 0.459823 -0.887445
-0.151742 0.19043 0.696289 -0.352905 0.85777 -0.373749
-0.155273 0.19043 0.698165 0.0373841 0.848624 -0.527673
-0.198331 0.196289 0.772461 -0.277561 -0.710867 0.646242
-0.202148 0.19892 0.772461 -0.420265 -0.301764 0.855754
-0.196289 0.196289 0.774155 -0.580108 -0.711608 0.396345
-0.196289 0.194726 0.772461 -0.470878 -0.718203 0.512307
-0.19043 0.194696 0.772461 0.0958873 -0.995178 -0.02064
-0.231445 0.207291 0.772461 -0.550484 -0.774865 0.310727
-0.225586 0.206415 0.772461 -0.118573 -0.991554 0.0525462
-0.219727 0.202735 0.772461 0.258708 -0.924843 0.278813
-0.213867 0.20785 0.772461 0.669902 -0.314988 -0.67232
-0.206905 0.202148 0.772461 -0.554935 0.0669237 0.829198
-0.202148 0.202148 0.776666 -0.91068 -0.229701 0.343364
-0.266602 0.223296 0.772461 -0.00134844 -0.988779 -0.149381
-0.260742 0.220109 0.772461 0.0187709 -0.997181 0.0726519
-0.254883 0.222316 0.772461 -0.0420795 -0.995559 -0.0842078
-0.248299 0.219727 0.772461 -0.454855 -0.882748 -0.117741
-0.249023 0.220093 0.772461 -0.364695 -0.9285 -0.0698953
