ply
format ascii 1.0
comment PCL generated
element vertex 591
property float x
property float y
property float z
property float nx
property float ny
property float nz
property float curvature
element camera 0
property float view_px
property float view_py
property float view_pz
property float x_axisx
property float x_axisy
property float x_axisz
property float y_axisx
property float y_axisy
property float y_axisz
property float z_axisx
property float z_axisy
property float z_axisz
property float focal
property float scalex
property float scaley
property float centerx
property float centery
property int viewportx
property int viewporty
property float k1
property float k2
end_header
-0.108398 0.137695 0.87997001 -0.54720402 -0.127049 -0.82730103 4.5897233e-039
-0.065278597 0.137695 0.87792999 0.76776302 0.095338002 0.63360101 4.5897233e-039
-0.067382798 0.137695 0.87978601 0.741234 0.078515597 0.66663897 4.5897233e-039
-0.096679702 0.12597699 0.87082797 -0.64091599 -0.038670201 -0.76663601 4.5897233e-039
-0.089719899 0.12597699 0.866211 -0.66121203 -0.0070450199 -0.750166 4.5897233e-039
-0.090820298 0.12597699 0.86725098 -0.63900101 -0.0191452 -0.76896799 4.5897233e-039
-0.057489298 0.12597699 0.866211 0.944287 0.117375 0.30748099 4.5897233e-039
-0.0615234 0.12597699 0.87168801 0.70347297 0.082938299 0.70586598 4.5897233e-039
-0.091092803 0.149414 0.866211 -0.60206199 -0.119417 -0.789469 4.5897233e-039
-0.063296698 0.149414 0.866211 0.98991197 0.141489 -0.0074466602 4.5897233e-039
-0.097837098 0.131836 0.87207001 -0.676099 -0.0405683 -0.73569298 4.5897233e-039
-0.102539 0.131836 0.87556499 -0.55419397 -0.038472999 -0.83149803 4.5897233e-039
-0.062400501 0.131836 0.87207001 0.830522 0.038174 0.55567598 4.5897233e-039
-0.096707501 0.143555 0.87207001 -0.61774302 -0.00942118 -0.78632402 4.5897233e-039
-0.102539 0.143555 0.87576997 -0.61250699 -0.115292 -0.78201199 4.5897233e-039
-0.096679702 0.143849 0.87207001 -0.61956602 -0.00795657 -0.784904 4.5897233e-039
-0.063024603 0.143555 0.87207001 0.92080098 0.069779404 0.38374001 4.5897233e-039
-0.096679702 0.120117 0.871737 -0.71483898 -0.079599001 -0.69474399 4.5897233e-039
-0.090722904 0.120117 0.866211 -0.65602303 0.0138699 -0.754614 4.5897233e-039
-0.090820298 0.120117 0.86628902 -0.65612501 0.0150019 -0.75450301 4.5897233e-039
-0.057831399 0.120117 0.866211 0.91878402 0.050140198 0.391563 4.5897233e-039
-0.117761 0.137695 0.883789 -0.625916 -0.25492299 -0.73705101 4.5897233e-039
-0.120117 0.14235 0.883789 -0.603109 -0.238445 -0.761186 4.5897233e-039
-0.120117 0.137695 0.88729 -0.75427699 -0.324081 -0.57099801 4.5897233e-039
-0.071066901 0.137695 0.883789 0.79366398 0.0267697 0.60776699 4.5897233e-039
-0.073242202 0.137695 0.88664001 0.747693 0.069385797 0.66040999 4.5897233e-039
-0.114258 0.131836 0.88378203 -0.688676 -0.31671801 -0.65223801 4.5897233e-039
-0.106756 0.131836 0.87792999 -0.65250999 -0.032092799 -0.75709999 4.5897233e-039
-0.108398 0.131836 0.87986201 -0.69078302 -0.145338 -0.70830399 4.5897233e-039
-0.065791197 0.131836 0.87792999 0.78855997 -0.041826501 0.61353302 4.5897233e-039
-0.067382798 0.131836 0.87977099 0.72839302 0.033345599 0.68434799 4.5897233e-039
-0.098001197 0.12597699 0.87207001 -0.692702 -0.048285 -0.71960598 4.5897233e-039
-0.102539 0.12597699 0.87599301 -0.55356598 -0.125929 -0.82322901 4.5897233e-039
-0.0617311 0.12597699 0.87207001 0.71153599 0.0758247 0.69854701 4.5897233e-039
-0.102539 0.149414 0.87508202 -0.55419803 -0.0102898 -0.83232099 4.5897233e-039
-0.096329004 0.149414 0.87207001 -0.64179802 0.0197268 -0.76661998 4.5897233e-039
-0.096679702 0.149414 0.87239498 -0.61943698 0.019776 -0.78479701 4.5897233e-039
-0.063410297 0.149414 0.87207001 0.89560699 0.117276 0.42910901 4.5897233e-039
-0.067382798 0.149414 0.876858 0.78362399 0.096921399 0.61362797 4.5897233e-039
-0.120117 0.143555 0.88358599 -0.57206601 -0.22887 -0.787628 4.5897233e-039
-0.114258 0.143555 0.88224 -0.46222901 -0.14574701 -0.87470102 4.5897233e-039
-0.104871 0.143555 0.87792999 -0.68307 -0.13455901 -0.71785098 4.5897233e-039
-0.108398 0.143555 0.88056302 -0.44094899 -0.121054 -0.88933098 4.5897233e-039
-0.067080602 0.143555 0.87792999 0.75446898 0.13191099 0.64294398 4.5897233e-039
-0.067382798 0.14509401 0.87792999 0.753708 0.115484 0.64698398 4.5897233e-039
-0.067382798 0.143555 0.87824798 0.762308 0.13046201 0.63393003 4.5897233e-039
-0.097001202 0.120117 0.87207001 -0.72730798 -0.086489998 -0.68084002 4.5897233e-039
-0.102539 0.120117 0.87700701 -0.64870101 -0.20031901 -0.73420602 4.5897233e-039
-0.0610983 0.120117 0.87207001 0.70928001 0.094568104 0.69855499 4.5897233e-039
-0.0615234 0.123394 0.87207001 0.70542002 0.086028203 0.70354903 4.5897233e-039
-0.0615234 0.120117 0.87239498 0.71904099 0.096421003 0.68824601 4.5897233e-039
-0.114264 0.131836 0.883789 -0.68902302 -0.31694499 -0.65176201 4.5897233e-039
-0.070784897 0.131836 0.883789 0.797822 0.046991199 0.60105902 4.5897233e-039
-0.073242202 0.131836 0.88710803 0.79539198 0.045550801 0.60438102 4.5897233e-039
-0.120949 0.137695 0.88964802 -0.71829402 -0.29089999 -0.63200498 4.5897233e-039
-0.076144703 0.137695 0.88964802 0.68431503 0.120311 0.71919298 4.5897233e-039
-0.0791016 0.137695 0.89212501 0.71772099 0.069690302 0.69283402 4.5897233e-039
-0.105737 0.12597699 0.87792999 -0.68776101 -0.16742 -0.70636702 4.5897233e-039
-0.108398 0.12597699 0.88157099 -0.758901 -0.28782099 -0.58414698 4.5897233e-039
-0.064997703 0.12597699 0.87792999 0.87652099 0.036518801 0.479976 4.5897233e-039
-0.067382798 0.12597699 0.881446 0.76539898 0.145183 0.626966 4.5897233e-039
-0.120117 0.149414 0.88297302 -0.42379099 -0.200654 -0.883255 4.5897233e-039
-0.114258 0.149414 0.88177198 -0.420802 -0.123645 -0.89868599 4.5897233e-039
-0.105747 0.149414 0.87792999 -0.67655301 -0.029581301 -0.73580003 4.5897233e-039
-0.108398 0.149414 0.88026297 -0.44047999 -0.086241797 -0.89361 4.5897233e-039
-0.068004496 0.149414 0.87792999 0.80765998 0.057041202 0.58688301 4.5897233e-039
-0.120481 0.143555 0.883789 -0.59647399 -0.242559 -0.765104 4.5897233e-039
-0.070739403 0.143555 0.883789 0.83517301 0.087144099 0.54303902 4.5897233e-039
-0.073242202 0.143555 0.88662797 0.71873897 0.091510601 0.68923199 4.5897233e-039
-0.116912 0.131836 0.88964802 -0.74870402 -0.33214 -0.573695 4.5897233e-039
-0.120117 0.136516 0.88964802 -0.7123 -0.332102 -0.618334 4.5897233e-039
-0.120117 0.131836 0.89295799 -0.72484303 -0.40878001 -0.55452901 4.5897233e-039
-0.075428203 0.131836 0.88964802 0.750741 0.0571994 0.65811598 4.5897233e-039
-0.0791016 0.131836 0.89297599 0.66469401 0.081633396 0.74264199 4.5897233e-039
-0.125076 0.137695 0.89550799 -0.78640002 -0.50351799 -0.357833 4.5897233e-039
-0.12597699 0.13911501 0.89550799 -0.83424002 -0.39975199 -0.37979099 4.5897233e-039
-0.12597699 0.137695 0.89692402 -0.83635801 -0.542023 -0.081948198 4.5897233e-039
-0.0817561 0.137695 0.89550799 0.78899002 -0.000206796 0.61440599 4.5897233e-039
-0.0849609 0.137695 0.89853799 0.59166199 0.0103863 0.80611998 4.5897233e-039
-0.104201 0.120117 0.87792999 -0.71098399 -0.232605 -0.66362399 4.5897233e-039
-0.064799398 0.120117 0.87792999 0.87101001 0.071978301 0.485964 4.5897233e-039
-0.067382798 0.120117 0.88116199 0.77551699 0.0065113301 0.63129199 4.5897233e-039
-0.110539 0.12597699 0.883789 -0.72960198 -0.31230399 -0.60839802 4.5897233e-039
-0.114258 0.131824 0.883789 -0.68911999 -0.31692499 -0.65166801 4.5897233e-039
-0.114258 0.12597699 0.88911903 -0.75605899 -0.3599 -0.54666901 4.5897233e-039
-0.069587298 0.12597699 0.883789 0.75994802 0.150453 0.63233101 4.5897233e-039
-0.073242202 0.12597699 0.88735002 0.75951999 0.036137398 0.64947897 4.5897233e-039
-0.122416 0.149414 0.883789 -0.50296497 -0.28439301 -0.81617802 4.5897233e-039
-0.12597699 0.149414 0.88770998 -0.60673398 -0.411531 -0.680085 4.5897233e-039
-0.071130402 0.149414 0.883789 0.80124497 0.042995699 0.59679002 4.5897233e-039
-0.073242202 0.149414 0.88643098 0.71193802 0.17676499 0.67963099 4.5897233e-039
-0.125098 0.143555 0.88964802 -0.614586 -0.36274001 -0.70050198 4.5897233e-039
-0.12597699 0.145123 0.88964802 -0.61169201 -0.359294 -0.70479798 4.5897233e-039
-0.12597699 0.143555 0.890365 -0.63044101 -0.36876401 -0.68304998 4.5897233e-039
-0.077368997 0.143555 0.88964802 0.67727101 0.068848401 0.73250598 4.5897233e-039
-0.0791016 0.143555 0.89134902 0.73941499 0.043023199 0.67187297 4.5897233e-039
-0.12154 0.131836 0.89550799 -0.84473503 -0.50799102 -0.168428 4.5897233e-039
-0.081413098 0.131836 0.89550799 0.74929202 0.049597699 0.66038001 4.5897233e-039
-0.0849609 0.131836 0.89872801 0.58859998 0.031016501 0.80782902 4.5897233e-039
-0.12717301 0.137695 0.90136701 -0.73829597 -0.48815101 0.465433 4.5897233e-039
-0.12597699 0.137695 0.90617502 -0.45849499 -0.42797899 0.77885598 4.5897233e-039
-0.096679702 0.137695 0.90651703 0.532781 0.0149122 0.84612203 4.5897233e-039
-0.088124499 0.137695 0.90136701 0.67032701 0.0205852 0.74177998 4.5897233e-039
-0.090820298 0.137695 0.90381902 0.51162797 0.0128591 0.85911101 4.5897233e-039
-0.107115 0.120117 0.883789 -0.82190901 -0.318928 -0.471964 4.5897233e-039
-0.108398 0.122698 0.883789 -0.762986 -0.37351799 -0.52757698 4.5897233e-039
-0.108398 0.120117 0.88621801 -0.78484201 -0.38107899 -0.48867401 4.5897233e-039
-0.069773301 0.120117 0.883789 0.73984897 -0.019425301 0.67249203 4.5897233e-039
-0.073242202 0.120117 0.887739 0.73910999 0.046399798 0.67198497 4.5897233e-039
-0.114536 0.12597699 0.88964802 -0.76229697 -0.36148101 -0.53687501 4.5897233e-039
-0.075137503 0.12597699 0.88964802 0.76203001 -0.0042839898 0.64752799 4.5897233e-039
-0.0791016 0.12597699 0.89375103 0.67141902 0.068277799 0.73792601 4.5897233e-039
-0.127496 0.149414 0.88964802 -0.56150001 -0.38976899 -0.72992998 4.5897233e-039
-0.131836 0.154733 0.88964802 -0.466048 -0.415764 -0.78098601 4.5897233e-039
-0.131836 0.149414 0.89415002 -0.54468501 -0.53344399 -0.64711303 4.5897233e-039
-0.077878803 0.149414 0.88964802 0.73530501 0.103638 0.669765 4.5897233e-039
-0.0791016 0.149414 0.89087802 0.74952698 0.065851197 0.65868998 4.5897233e-039
-0.128268 0.143555 0.89550799 -0.81653303 -0.39393699 -0.422003 4.5897233e-039
-0.131836 0.14839201 0.89550799 -0.606704 -0.63295001 -0.48091999 4.5897233e-039
-0.082298398 0.143555 0.89550799 0.73842603 0.100224 0.66684502 4.5897233e-039
-0.0849609 0.143555 0.897856 0.63682598 0.084805399 0.76633 4.5897233e-039
-0.121946 0.131836 0.90136701 -0.59430301 -0.45455399 0.66346401 4.5897233e-039
-0.12597699 0.136297 0.90136701 -0.629035 -0.56457502 0.53438801 4.5897233e-039
-0.120117 0.131836 0.90626901 -0.378178 -0.42095599 0.82448602 4.5897233e-039
-0.087970898 0.131836 0.90136701 0.66389799 0.031319201 0.74716699 4.5897233e-039
-0.090820298 0.131836 0.90379697 0.50451702 -0.0110635 0.86333102 4.5897233e-039
-0.123414 0.137695 0.90722698 -0.34926099 -0.39751399 0.84852803 4.5897233e-039
-0.12597699 0.139311 0.90722698 -0.406279 -0.38191801 0.83010602 4.5897233e-039
-0.120117 0.137695 0.90851903 -0.26162699 -0.32845899 0.907561 4.5897233e-039
-0.114258 0.137695 0.91121501 0.178133 -0.082940601 0.98050499 4.5897233e-039
-0.108398 0.137695 0.91257697 0.41077101 0.047386199 0.91050601 4.5897233e-039
-0.097631797 0.137695 0.90722698 0.52811003 0.0183289 0.84897798 4.5897233e-039
-0.102539 0.137695 0.90985101 0.375938 0.021838799 0.92638803 4.5897233e-039
-0.110717 0.120117 0.88964802 -0.767524 -0.41529801 -0.48829699 4.5897233e-039
-0.114258 0.12543599 0.88964802 -0.75486797 -0.38390201 -0.53178298 4.5897233e-039
-0.074994199 0.120117 0.88964802 0.774804 0.0695723 0.628362 4.5897233e-039
-0.117558 0.12597699 0.89550799 -0.852377 -0.52289099 -0.00616825 4.5897233e-039
-0.120117 0.129526 0.89550799 -0.79930001 -0.58388799 -0.142106 4.5897233e-039
-0.081020802 0.12597699 0.89550799 0.71031499 0.075669304 0.69980502 4.5897233e-039
-0.0849609 0.12597699 0.89907598 0.609272 0.0607551 0.790631 4.5897233e-039
-0.128959 0.143555 0.90136701 -0.73315102 -0.41004899 0.54254103 4.5897233e-039
-0.131836 0.14651699 0.90136701 -0.54435098 -0.67069203 0.50383902 4.5897233e-039
-0.096679702 0.143555 0.906304 0.555668 0.00029162801 0.83140397 4.5897233e-039
-0.088527001 0.143555 0.90136701 0.66023397 0.0158273 0.750893 4.5897233e-039
-0.090820298 0.143555 0.90345699 0.56725901 0.028805999 0.82303602 4.5897233e-039
-0.132614 0.149414 0.89550799 -0.64300698 -0.600806 -0.47494599 4.5897233e-039
-0.137695 0.154392 0.89550799 -0.71540397 -0.586815 -0.379269 4.5897233e-039
-0.083334997 0.149414 0.89550799 0.67225897 0.078575097 0.73613399 4.5897233e-039
-0.0849609 0.149414 0.89699399 0.68215799 0.072930902 0.72755802 4.5897233e-039
-0.117312 0.131836 0.90722698 -0.30034 -0.397854 0.86689597 4.5897233e-039
-0.120117 0.134771 0.90722698 -0.34509599 -0.382312 0.85717303 4.5897233e-039
-0.114258 0.131836 0.90846097 -0.106284 -0.27129599 0.95661002 4.5897233e-039
-0.108398 0.131836 0.91084301 0.373694 -0.058281198 0.92571902 4.5897233e-039
-0.102539 0.131836 0.91009003 0.35499501 0.050638899 0.933496 4.5897233e-039
-0.096581802 0.131836 0.90722698 0.55066401 0.0490424 0.83328497 4.5897233e-039
-0.096679702 0.132494 0.90722698 0.54513103 0.043134101 0.83723998 4.5897233e-039
-0.096679702 0.131836 0.907314 0.54901099 0.050378699 0.83429497 4.5897233e-039
-0.114258 0.141241 0.913086 0.29822201 0.0054756198 0.95448101 4.5897233e-039
-0.113673 0.120117 0.89550799 -0.78501201 -0.60324401 0.140898 4.5897233e-039
-0.114258 0.120797 0.89550799 -0.77544898 -0.61878198 0.12564901 4.5897233e-039
-0.0849609 0.120117 0.89953101 0.62441403 0.051913101 0.77936703 4.5897233e-039
-0.079034001 0.120117 0.89550799 0.68183398 0.122214 0.72122502 4.5897233e-039
-0.0791016 0.120282 0.89550799 0.68194199 0.122849 0.72101498 4.5897233e-039
-0.0791016 0.120117 0.89556903 0.68064499 0.121315 0.72249901 4.5897233e-039
-0.11717 0.12597699 0.90136701 -0.53028899 -0.41313601 0.74034601 4.5897233e-039
-0.120117 0.129226 0.90136701 -0.525644 -0.51896298 0.67407298 4.5897233e-039
-0.114258 0.12597699 0.90594602 -0.38006699 -0.37061501 0.84746301 4.5897233e-039
-0.087416999 0.12597699 0.90136701 0.63775599 0.0744856 0.76662898 4.5897233e-039
-0.090820298 0.12597699 0.90406001 0.51531303 0.0280357 0.85654402 4.5897233e-039
-0.127597 0.143555 0.90722698 -0.41574299 -0.33967999 0.84366798 4.5897233e-039
-0.131836 0.148201 0.90722698 -0.390066 -0.39519599 0.83166599 4.5897233e-039
-0.12597699 0.143555 0.90946198 -0.28780201 -0.28898099 0.91305 4.5897233e-039
-0.120117 0.143555 0.91140002 -0.0244024 -0.080759399 0.99643499 4.5897233e-039
-0.108398 0.143555 0.91137201 0.40369499 -0.0040742499 0.91488498 4.5897233e-039
-0.097943097 0.143555 0.90722698 0.540416 -0.0018962499 0.84139597 4.5897233e-039
-0.102539 0.143555 0.90975499 0.35710701 -0.0131253 0.93397099 4.5897233e-039
-0.135368 0.149414 0.90136701 -0.63944399 -0.610672 0.46710899 4.5897233e-039
-0.137695 0.151962 0.90136701 -0.71875799 -0.520271 0.4612 4.5897233e-039
-0.096679702 0.149414 0.90672898 0.55592299 0.048711799 0.82980502 4.5897233e-039
-0.089824699 0.149414 0.90136701 0.64984798 0.033952601 0.75930601 4.5897233e-039
-0.090820298 0.149414 0.902215 0.623335 0.032766599 0.781268 4.5897233e-039
-0.111767 0.120117 0.90136701 -0.54154098 -0.42151099 0.72736597 4.5897233e-039
-0.114258 0.122656 0.90136701 -0.51376897 -0.48470101 0.70788902 4.5897233e-039
-0.108398 0.120117 0.90630198 -0.223133 -0.31839401 0.921323 4.5897233e-039
-0.086813398 0.120117 0.90136701 0.62950599 0.059535 0.77471101 4.5897233e-039
-0.090820298 0.120117 0.90427798 0.53325403 0.0275349 0.84550703 4.5897233e-039
-0.111842 0.12597699 0.90722698 -0.19771001 -0.313476 0.92878598 4.5897233e-039
-0.114258 0.12959801 0.90722698 -0.223324 -0.344289 0.91191602 4.5897233e-039
-0.108398 0.12597699 0.90911299 0.124833 -0.074995697 0.98933899 4.5897233e-039
-0.102539 0.12597699 0.91039002 0.34868899 0.079949804 0.93382198 4.5897233e-039
-0.094895199 0.12597699 0.90722698 0.60462803 0.061099701 0.79416102 4.5897233e-039
-0.096679702 0.12597699 0.908759 0.51379901 0.072217502 0.85486603 4.5897233e-039
-0.133964 0.149414 0.90722698 -0.42382801 -0.369082 0.827133 4.5897233e-039
-0.137695 0.154181 0.90722698 -0.465119 -0.32116601 0.82493502 4.5897233e-039
-0.131836 0.149414 0.908876 -0.34082499 -0.308667 0.88801098 4.5897233e-039
-0.12597699 0.149414 0.91137201 -0.089387096 -0.12918399 0.98758399 4.5897233e-039
-0.114258 0.149414 0.91266102 0.24707399 -0.0035949899 0.96899003 4.5897233e-039
-0.108398 0.149414 0.911349 0.400682 -0.0335426 0.91560298 4.5897233e-039
-0.097353697 0.149414 0.90722698 0.54898101 0.051920399 0.83421999 4.5897233e-039
-0.102539 0.149414 0.90995502 0.389467 -0.0051403102 0.92102599 4.5897233e-039
-0.11676 0.143555 0.913086 0.17601299 0.044171002 0.98339599 4.5897233e-039
-0.120117 0.14726099 0.913086 0.12103 0.00743016 0.992621 4.5897233e-039
-0.11219 0.143555 0.913086 0.36156401 0.0157998 0.93221301 4.5897233e-039
-0.114258 0.147797 0.913086 0.26376501 0.00155663 0.96458602 4.5897233e-039
-0.114258 0.143555 0.91405803 0.28024599 0.0191245 0.95973802 4.5897233e-039
-0.106779 0.120117 0.90722698 -0.065070704 -0.27451301 0.95937902 4.5897233e-039
-0.108398 0.122033 0.90722698 -0.133798 -0.254996 0.95763999 4.5897233e-039
-0.102539 0.120117 0.90881503 0.199195 -0.054389302 0.97844899 4.5897233e-039
-0.094530001 0.120117 0.90722698 0.65402699 0.032228999 0.75578398 4.5897233e-039
-0.096679702 0.120117 0.90944701 0.486301 0.069578998 0.87101603 4.5897233e-039
-0.122251 0.149414 0.913086 0.056010801 0.0197527 0.99823499 4.5897233e-039
-0.12597699 0.152895 0.913086 0.062307902 -0.066408597 0.99584502 4.5897233e-039
-0.116183 0.149414 0.913086 0.198089 0.017241601 0.98003203 4.5897233e-039
-0.120117 0.149414 0.91392303 0.118339 0.017136101 0.99282497 4.5897233e-039
-0.067382798 0.17285199 0.636527 -0.076547503 0.486332 -0.87041497 4.5897233e-039
-0.0615234 0.17285199 0.63639402 0.0199589 0.40388799 -0.91459101 4.5897233e-039
-0.0556641 0.17285199 0.63676602 0.115126 0.247308 -0.96207303 4.5897233e-039
-0.073242202 0.16699199 0.636011 -0.21390399 0.32639799 -0.92071098 4.5897233e-039
-0.067382798 0.16699199 0.63480598 0.047244001 0.31366801 -0.94835699 4.5897233e-039
-0.0615234 0.16699199 0.63465202 0.23310199 0.17443 -0.95668101 4.5897233e-039
-0.0556641 0.16699199 0.63655698 0.42920399 -0.13160899 -0.89356798 4.5897233e-039
-0.073242202 0.16113301 0.63579798 -0.23193599 0.140582 -0.96251899 4.5897233e-039
-0.067382798 0.16113301 0.634193 0.154359 0.0983942 -0.98310298 4.5897233e-039
-0.0615234 0.16113301 0.63471198 0.44642901 -0.083418198 -0.89092201 4.5897233e-039
-0.073242202 0.15527301 0.63517302 -0.216378 0.13864499 -0.96641499 4.5897233e-039
-0.067382798 0.15527301 0.63362098 0.245897 0.034454498 -0.968683 4.5897233e-039
-0.0615234 0.15527301 0.634911 0.54191297 -0.078048803 -0.83680201 4.5897233e-039
-0.0791016 0.178711 0.64354199 -0.210521 0.54185498 -0.81367898 4.5897233e-039
-0.073242202 0.178711 0.64197499 -0.212612 0.57013702 -0.79356098 4.5897233e-039
-0.067382798 0.178711 0.64055198 -0.160209 0.558469 -0.81390798 4.5897233e-039
-0.0615234 0.178711 0.63965201 -0.091561504 0.46394101 -0.88112098 4.5897233e-039
-0.0556641 0.178711 0.63937402 -0.0066845198 0.38179499 -0.92422301 4.5897233e-039
-0.049804699 0.178711 0.63897002 0.057076201 0.30919099 -0.94928598 4.5897233e-039
-0.043945301 0.178711 0.63962901 0.187713 0.093844697 -0.97772998 4.5897233e-039
-0.0380859 0.178711 0.64180499 0.37929401 -0.25302199 -0.89000899 4.5897233e-039
-0.0615234 0.18457 0.64348501 -0.14969601 0.50503701 -0.85001701 4.5897233e-039
-0.0556641 0.18457 0.64219898 -0.079148397 0.48189101 -0.87264901 4.5897233e-039
-0.049804699 0.18457 0.64180601 -0.042690501 0.42215601 -0.90551698 4.5897233e-039
-0.043945301 0.18457 0.64161497 -0.024385501 0.33622 -0.941468 4.5897233e-039
-0.0380859 0.18457 0.64160299 0.072709203 0.168479 -0.98302001 4.5897233e-039
-0.0322266 0.18457 0.64271599 0.29390901 -0.12914599 -0.94706798 4.5897233e-039
0.0029296901 0.15527301 0.64777702 -0.0025019599 0.54330701 -0.839531 4.5897233e-039
0.0087890597 0.15527301 0.64768702 0.0028225901 0.54518002 -0.838314 4.5897233e-039
0.0146484 0.15527301 0.64763701 0.0209498 0.550255 -0.83473402 4.5897233e-039
0.020507799 0.15527301 0.64781803 0.0397043 0.54337603 -0.83854997 4.5897233e-039
0.026367201 0.15527301 0.64809901 0.074978299 0.53489101 -0.84158802 4.5897233e-039
0.0322266 0.15527301 0.64866698 0.087398 0.53950399 -0.83743501 4.5897233e-039
0.0380859 0.15527301 0.64926302 0.111622 0.53869301 -0.83507502 4.5897233e-039
0.0029296901 0.16113301 0.651384 -0.0092324 0.60911202 -0.79303002 4.5897233e-039
0.0087890597 0.16113301 0.65134197 0.0066902898 0.616633 -0.78722298 4.5897233e-039
0.0146484 0.16113301 0.651416 0.0226613 0.62657398 -0.77903301 4.5897233e-039
0.020507799 0.16113301 0.65164298 0.0471613 0.64255601 -0.76478601 4.5897233e-039
0.026367201 0.16113301 0.65172201 0.075399898 0.662431 -0.74531901 4.5897233e-039
0.0322266 0.16113301 0.65227699 0.0780394 0.66128999 -0.74606001 4.5897233e-039
0.0380859 0.16113301 0.65292102 0.088546798 0.63658398 -0.76610702 4.5897233e-039
0.043945301 0.16113301 0.65363401 0.108641 0.62879199 -0.76994699 4.5897233e-039
0.049804699 0.16113301 0.65448499 0.120341 0.624982 -0.771308 4.5897233e-039
0.0029296901 0.16699199 0.656021 -0.0058964202 0.63860703 -0.76951098 4.5897233e-039
0.0087890597 0.16699199 0.65591198 0.028338401 0.64770198 -0.76136601 4.5897233e-039
0.0146484 0.16699199 0.656133 0.0420026 0.66038299 -0.749753 4.5897233e-039
0.020507799 0.16699199 0.65628999 0.0730488 0.67395103 -0.73515499 4.5897233e-039
0.026367201 0.16699199 0.65670502 0.086439803 0.68559903 -0.72283 4.5897233e-039
0.0322266 0.16699199 0.65744299 0.056954399 0.68795401 -0.72351599 4.5897233e-039
0.0380859 0.16699199 0.65770298 0.098464899 0.68786198 -0.71913201 4.5897233e-039
0.043945301 0.16699199 0.65838099 0.107521 0.67876601 -0.72644001 4.5897233e-039
0.049804699 0.16699199 0.65927601 0.102348 0.65932399 -0.74485999 4.5897233e-039
0.0556641 0.16699199 0.66003001 0.088839903 0.65516901 -0.75024098 4.5897233e-039
0.0615234 0.16699199 0.66078299 0.107617 0.65395099 -0.74884403 4.5897233e-039
0.0087890597 0.17285199 0.66092801 0.076685801 0.65507901 -0.75165898 4.5897233e-039
-0.0849609 0.15527301 0.64286101 -0.62743801 0.0555056 -0.77668601 4.5897233e-039
-0.078388497 0.15527301 0.63769501 -0.48499 0.120118 -0.86623102 4.5897233e-039
-0.0791016 0.15527301 0.63826001 -0.524248 0.114411 -0.84384501 4.5897233e-039
-0.0574219 0.15527301 0.63769501 0.59224498 -0.093833603 -0.80027598 4.5897233e-039
-0.0556641 0.15527301 0.63905001 0.58262599 -0.071478903 -0.809591 4.5897233e-039
-0.049804699 0.15527301 0.642977 0.49633801 0.042040698 -0.86711103 4.5897233e-039
-0.0849609 0.16113301 0.64238799 -0.53451502 -0.061006799 -0.84295398 4.5897233e-039
-0.078363098 0.16113301 0.63769501 -0.44276601 0.106205 -0.89032501 4.5897233e-039
-0.0791016 0.16113301 0.63814002 -0.475036 0.096252598 -0.874686 4.5897233e-039
-0.056598999 0.16113301 0.63769501 0.57082301 -0.204909 -0.795093 4.5897233e-039
-0.0556641 0.163297 0.63769501 0.57154697 -0.235254 -0.78612298 4.5897233e-039
-0.0556641 0.16113301 0.63835102 0.58463103 -0.212038 -0.78310001 4.5897233e-039
-0.049804699 0.16113301 0.64278698 0.57986701 -0.18632101 -0.79311901 4.5897233e-039
-0.0849609 0.17285199 0.64194697 -0.291563 0.421918 -0.858473 4.5897233e-039
-0.0791016 0.17285199 0.64019603 -0.28067499 0.470525 -0.83655697 4.5897233e-039
-0.0720855 0.17285199 0.63769501 -0.168219 0.50529099 -0.84639502 4.5897233e-039
-0.073242202 0.17285199 0.63805401 -0.20091601 0.502033 -0.841187 4.5897233e-039
-0.067382798 0.174444 0.63769501 -0.097011201 0.51197499 -0.85350502 4.5897233e-039
-0.0615234 0.174933 0.63769501 -0.0129985 0.44080099 -0.89751101 4.5897233e-039
-0.050908901 0.17285199 0.63769501 0.27918801 0.0083355 -0.96020001 4.5897233e-039
-0.0556641 0.174496 0.63769501 0.071325898 0.328374 -0.94185102 4.5897233e-039
-0.049804699 0.17285199 0.637941 0.32586399 -0.058580101 -0.9436 4.5897233e-039
-0.043945301 0.17285199 0.64139098 0.474599 -0.391967 -0.78811002 4.5897233e-039
-0.090820298 0.16699199 0.643444 -0.36293599 0.0293981 -0.93134999 4.5897233e-039
-0.0849609 0.16699199 0.641177 -0.38874999 0.115314 -0.91409898 4.5897233e-039
-0.078059703 0.16699199 0.63769501 -0.35274899 0.28425699 -0.89149702 4.5897233e-039
-0.0791016 0.16699199 0.63828498 -0.37595999 0.262216 -0.888762 4.5897233e-039
-0.073242202 0.17189901 0.63769501 -0.20164999 0.47858 -0.85457498 4.5897233e-039
-0.0538247 0.16699199 0.63769501 0.494293 -0.24081001 -0.83527499 4.5897233e-039
-0.049804699 0.16699199 0.64073002 0.54745799 -0.38166299 -0.74473 4.5897233e-039
-0.096679702 0.178711 0.64831901 -0.15511499 0.30427 -0.93987203 4.5897233e-039
-0.090820298 0.178711 0.64707702 -0.189144 0.42477 -0.88532197 4.5897233e-039
-0.079140402 0.178711 0.64355499 -0.210568 0.54151303 -0.81389499 4.5897233e-039
-0.0849609 0.178711 0.64559799 -0.237038 0.48998299 -0.83888602 4.5897233e-039
-0.0791016 0.17873 0.64355499 -0.210363 0.541722 -0.81380898 4.5897233e-039
-0.073242202 0.180672 0.64355499 -0.22327501 0.54221898 -0.81002897 4.5897233e-039
-0.067382798 0.182622 0.64355499 -0.205549 0.52178699 -0.82794201 4.5897233e-039
-0.035050299 0.178711 0.64355499 0.462769 -0.41086501 -0.78551602 4.5897233e-039
-0.0322266 0.18231399 0.64355499 0.42381701 -0.29922599 -0.85489303 4.5897233e-039
-0.0322266 0.178711 0.64549899 0.52987897 -0.50247997 -0.68318498 4.5897233e-039
-0.0849609 0.18457 0.64939499 -0.13296001 0.32764199 -0.93540001 4.5897233e-039
-0.0791016 0.18457 0.64788401 -0.166412 0.427499 -0.88856697 4.5897233e-039
-0.073242202 0.18457 0.64682299 -0.20404799 0.50000602 -0.84164 4.5897233e-039
-0.0617503 0.18457 0.64355499 -0.15315901 0.50524199 -0.84927797 4.5897233e-039
-0.067382798 0.18457 0.64519799 -0.19707499 0.517443 -0.83271497 4.5897233e-039
-0.0615234 0.18470401 0.64355499 -0.149736 0.503842 -0.85071898 4.5897233e-039
-0.0556641 0.18669599 0.64355499 -0.111532 0.45363501 -0.88418102 4.5897233e-039
-0.049804699 0.18729401 0.64355499 -0.0966589 0.37383699 -0.92244399 4.5897233e-039
-0.043945301 0.187924 0.64355499 -0.067039497 0.29804799 -0.95219398 4.5897233e-039
-0.0380859 0.18903901 0.64355499 -0.044612799 0.218144 -0.97489601 4.5897233e-039
-0.030414499 0.18457 0.64355499 0.37803 -0.24112301 -0.89384198 4.5897233e-039
-0.026367201 0.18457 0.645877 0.50003302 -0.43534699 -0.74862498 4.5897233e-039
0.0029296901 0.16591901 0.65527302 -0.0052881702 0.63369101 -0.77356797 4.5897233e-039
0.0087890597 0.166079 0.65527302 0.026225399 0.63809401 -0.769512 4.5897233e-039
0.0146484 0.165867 0.65527302 0.0395272 0.647138 -0.76134801 4.5897233e-039
0.020507799 0.165691 0.65527302 0.064737298 0.66092402 -0.74765599 4.5897233e-039
0.026367201 0.16518401 0.65527302 0.086324997 0.66790003 -0.73922801 4.5897233e-039
0.0322266 0.164481 0.65527302 0.060026199 0.66009599 -0.748779 4.5897233e-039
0.0380859 0.16386101 0.65527302 0.0883855 0.65821499 -0.74762398 4.5897233e-039
0.043945301 0.16306899 0.65527302 0.108362 0.66435301 -0.73952198 4.5897233e-039
0.0540956 0.16113301 0.65527302 0.116926 0.61678201 -0.77840102 4.5897233e-039
0.049804699 0.162109 0.65527302 0.112135 0.648996 -0.75248301 4.5897233e-039
0.0556641 0.16113301 0.65556097 0.116985 0.61169201 -0.782399 4.5897233e-039
0.0615234 0.16113301 0.65659899 0.13601699 0.589306 -0.79637802 4.5897233e-039
0.067382798 0.16113301 0.65762597 0.158907 0.58351898 -0.79640102 4.5897233e-039
0.073242202 0.16113301 0.65863401 0.16852599 0.57884598 -0.79783201 4.5897233e-039
0.0791016 0.16113301 0.65998203 0.16483 0.57669598 -0.80015802 4.5897233e-039
0.0849609 0.16113301 0.660905 0.184121 0.599271 -0.77908498 4.5897233e-039
0.0029296901 0.157748 0.649414 -0.00947579 0.57519197 -0.817963 4.5897233e-039
0.0087890597 0.157839 0.649414 0.0051781 0.57799101 -0.81602597 4.5897233e-039
0.0146484 0.157847 0.649414 0.023032101 0.57468897 -0.818048 4.5897233e-039
0.020507799 0.157673 0.649414 0.031107901 0.57328099 -0.81876802 4.5897233e-039
0.026367201 0.157279 0.649414 0.072277397 0.57238698 -0.81679201 4.5897233e-039
0.0322266 0.156297 0.649414 0.091265202 0.56333399 -0.82117301 4.5897233e-039
0.038969599 0.15527301 0.649414 0.116974 0.53784102 -0.83489197 4.5897233e-039
0.0380859 0.155496 0.649414 0.110954 0.54500401 -0.83105898 4.5897233e-039
0.043945301 0.15527301 0.65017802 0.13138001 0.53078598 -0.83726102 4.5897233e-039
0.049804699 0.15527301 0.65111297 0.130648 0.53498697 -0.83469802 4.5897233e-039
0.0556641 0.15527301 0.65171498 0.15086301 0.55640101 -0.81710303 4.5897233e-039
0.0615234 0.15527301 0.65270603 0.15005399 0.56404197 -0.81199801 4.5897233e-039
0.067382798 0.15527301 0.65358102 0.16024999 0.55169201 -0.81850898 4.5897233e-039
0.073242202 0.15527301 0.654818 0.161717 0.55029702 -0.81915897 4.5897233e-039
0.0029296901 0.178711 0.665887 0.13187701 0.51875001 -0.84469301 4.5897233e-039
0.0087890597 0.178711 0.66601801 0.14554299 0.55821002 -0.81683499 4.5897233e-039
0.0029296901 0.172602 0.66113299 0.034249399 0.62248403 -0.781883 4.5897233e-039
0.0146484 0.172507 0.66113299 0.059594601 0.686131 -0.72503299 4.5897233e-039
0.020507799 0.17242099 0.66113299 0.088829301 0.68923301 -0.71907401 4.5897233e-039
0.026367201 0.171529 0.66113299 0.069404699 0.68746901 -0.72288901 4.5897233e-039
0.0322266 0.170763 0.66113299 0.044990499 0.67971301 -0.73209703 4.5897233e-039
0.0380859 0.170572 0.66113299 0.085434303 0.68503797 -0.72347999 4.5897233e-039
0.043945301 0.16962799 0.66113299 0.077440202 0.658584 -0.74851203 4.5897233e-039
0.049804699 0.168769 0.66113299 0.10546 0.64743 -0.75479299 4.5897233e-039
0.0556641 0.168009 0.66113299 0.091183104 0.65068102 -0.75385702 4.5897233e-039
0.064242996 0.16699199 0.66113299 0.120694 0.66012901 -0.74139202 4.5897233e-039
0.0615234 0.167337 0.66113299 0.11046 0.65371603 -0.74863499 4.5897233e-039
0.067382798 0.16699199 0.66154999 0.128254 0.66162598 -0.73878402 4.5897233e-039
0.073242202 0.16699199 0.662682 0.14672799 0.65384102 -0.74226803 4.5897233e-039
0.0791016 0.16699199 0.66378301 0.1777 0.64865202 -0.740049 4.5897233e-039
0.0849609 0.16699199 0.66499001 0.19339401 0.64557999 -0.73879898 4.5897233e-039
0.090820298 0.16699199 0.66638601 0.22713199 0.64705402 -0.72782701 4.5897233e-039
-0.086188599 0.15527301 0.64355499 -0.61981702 0.0138448 -0.78462499 4.5897233e-039
-0.090820298 0.15527301 0.64657497 -0.499495 -0.122922 -0.85755199 4.5897233e-039
-0.048828401 0.15527301 0.64355499 0.46292201 0.067671001 -0.88381201 4.5897233e-039
-0.043945301 0.15527301 0.64588201 0.35402799 0.19667999 -0.91431999 4.5897233e-039
-0.0380859 0.15527301 0.64779502 0.187999 0.34398201 -0.919963 4.5897233e-039
-0.0322266 0.15527301 0.64858299 0.078390002 0.453989 -0.88755202 4.5897233e-039
-0.026367201 0.15527301 0.64899302 -0.0060030799 0.52475202 -0.85123402 4.5897233e-039
-0.020507799 0.15527301 0.64856702 -0.019754499 0.55270803 -0.83314103 4.5897233e-039
-0.0146484 0.15527301 0.648534 -0.048300199 0.55692703 -0.82915598 4.5897233e-039
-0.0087890597 0.15527301 0.64803201 -0.056501102 0.56546199 -0.822837 4.5897233e-039
-0.0029296901 0.15527301 0.64753002 -0.00340693 0.55930799 -0.82895303 4.5897233e-039
-0.096679702 0.16113301 0.64770103 -0.35108101 -0.253142 -0.90147698 4.5897233e-039
-0.0874964 0.16113301 0.64355499 -0.487737 -0.149205 -0.86014599 4.5897233e-039
-0.090820298 0.166495 0.64355499 -0.36672699 -0.021149 -0.93008798 4.5897233e-039
-0.090820298 0.16113301 0.64507502 -0.40411201 -0.203853 -0.89170498 4.5897233e-039
-0.0487676 0.16113301 0.64355499 0.56288302 -0.164873 -0.80992597 4.5897233e-039
-0.043945301 0.16113301 0.64648098 0.490403 -0.043514401 -0.87040901 4.5897233e-039
-0.0380859 0.16113301 0.64934701 0.34641799 0.145593 -0.92671299 4.5897233e-039
0.00613725 0.17285199 0.66113299 0.063510999 0.63413 -0.77061403 4.5897233e-039
0.0029296901 0.17285199 0.66136199 0.037827399 0.61895603 -0.78451401 4.5897233e-039
0.0110075 0.17285199 0.66113299 0.0734905 0.67300701 -0.73597598 4.5897233e-039
0.0087890597 0.173113 0.66113299 0.081917897 0.651591 -0.75413501 4.5897233e-039
0.0146484 0.17285199 0.66143501 0.061154298 0.68347299 -0.72741002 4.5897233e-039
0.020507799 0.17285199 0.66151899 0.087249197 0.68541002 -0.72291201 4.5897233e-039
0.026367201 0.17285199 0.66248 0.060768601 0.677086 -0.73338997 4.5897233e-039
0.0322266 0.17285199 0.66307199 0.063209698 0.687747 -0.72319299 4.5897233e-039
0.0380859 0.17285199 0.66314 0.096336901 0.70538402 -0.70224798 4.5897233e-039
0.043945301 0.17285199 0.66395599 0.072553501 0.72445798 -0.68549001 4.5897233e-039
0.049804699 0.17285199 0.66433197 0.082496896 0.71575898 -0.69345701 4.5897233e-039
0.0556641 0.17285199 0.66526699 0.079760499 0.69565701 -0.71393198 4.5897233e-039
0.0615234 0.17285199 0.66579098 0.108477 0.67788398 -0.72712201 4.5897233e-039
0.067382798 0.17285199 0.66697198 0.126385 0.65591198 -0.74418199 4.5897233e-039
-0.096679702 0.17285199 0.64648497 -0.302654 0.277841 -0.911704 4.5897233e-039
-0.090221502 0.17285199 0.64355499 -0.278577 0.38452899 -0.88007498 4.5897233e-039
-0.090820298 0.17285199 0.64378297 -0.277724 0.37778401 -0.88326001 4.5897233e-039
-0.0849609 0.175347 0.64355499 -0.28183499 0.462116 -0.84084398 4.5897233e-039
-0.041029699 0.17285199 0.64355499 0.506392 -0.49557799 -0.70567 4.5897233e-039
-0.0380859 0.175881 0.64355499 0.496292 -0.46840101 -0.730955 4.5897233e-039
-0.0380859 0.17285199 0.64614999 0.52449501 -0.538939 -0.65912801 4.5897233e-039
-0.091042399 0.16699199 0.64355499 -0.36177599 0.0262422 -0.93189597 4.5897233e-039
-0.096679702 0.16699199 0.64629698 -0.37684301 -0.0374978 -0.92551798 4.5897233e-039
-0.090820298 0.168853 0.64355499 -0.342125 0.180856 -0.922086 4.5897233e-039
-0.046578798 0.16699199 0.64355499 0.56223601 -0.40945601 -0.71849602 4.5897233e-039
-0.043945301 0.16998699 0.64355499 0.57375401 -0.46332899 -0.675376 4.5897233e-039
-0.043945301 0.16699199 0.645684 0.567509 -0.37850201 -0.73121101 4.5897233e-039
-0.114258 0.178711 0.65433103 -0.43478599 0.102152 -0.89472097 4.5897233e-039
-0.108398 0.178711 0.65303397 -0.431272 0.081494503 -0.898534 4.5897233e-039
-0.099397101 0.178711 0.649414 -0.190593 0.244564 -0.95071697 4.5897233e-039
-0.102539 0.178711 0.65060002 -0.253795 0.172001 -0.95184201 4.5897233e-039
-0.096679702 0.18309601 0.649414 -0.0470622 0.15033101 -0.98751497 4.5897233e-039
-0.090820298 0.183754 0.649414 -0.079840697 0.22946601 -0.97003698 4.5897233e-039
-0.028247699 0.178711 0.649414 0.56611401 -0.58223897 -0.58353502 4.5897233e-039
-0.026367201 0.180521 0.649414 0.58104497 -0.569893 -0.58104098 4.5897233e-039
-0.026367201 0.178711 0.65161902 0.57837701 -0.57458001 -0.57908303 4.5897233e-039
0.0029296901 0.18457 0.66831303 0.341528 0.20034499 -0.91826999 4.5897233e-039
0.0087890597 0.18457 0.67024899 0.23120099 0.34419701 -0.90998602 4.5897233e-039
0.0146484 0.18457 0.67151999 0.17750999 0.41541201 -0.89214498 4.5897233e-039
0.020507799 0.18457 0.67250103 0.143419 0.453338 -0.87972498 4.5897233e-039
-0.108398 0.18457 0.653575 -0.422391 0.092467897 -0.901685 4.5897233e-039
-0.102539 0.18457 0.65128201 -0.186391 0.048046201 -0.9813 4.5897233e-039
-0.096679702 0.189891 0.649414 -0.062703498 -0.164069 -0.98445398 4.5897233e-039
-0.096679702 0.18457 0.64984 -0.0262636 0.045676399 -0.99861097 4.5897233e-039
-0.085217401 0.18457 0.649414 -0.129169 0.31983399 -0.93862802 4.5897233e-039
-0.090820298 0.18457 0.64982802 -0.059833601 0.161338 -0.985084 4.5897233e-039
-0.0849609 0.184788 0.649414 -0.126112 0.311627 -0.94179899 4.5897233e-039
-0.0791016 0.188967 0.649414 -0.089673199 0.214461 -0.97260702 4.5897233e-039
-0.073242202 0.190162 0.649414 -0.123592 0.234964 -0.96411401 4.5897233e-039
-0.0223176 0.18457 0.649414 0.56309003 -0.558285 -0.60930002 4.5897233e-039
-0.020507799 0.18662 0.649414 0.59133399 -0.516527 -0.61929297 4.5897233e-039
-0.020507799 0.18457 0.65140599 0.60325098 -0.57023102 -0.55760598 4.5897233e-039
0.067382798 0.166365 0.66113299 0.12742899 0.65649903 -0.74348599 4.5897233e-039
0.073242202 0.164584 0.66113299 0.157189 0.61507398 -0.77264202 4.5897233e-039
0.0791016 0.16275699 0.66113299 0.17111699 0.59782702 -0.783149 4.5897233e-039
0.0861044 0.16113301 0.66113299 0.18897299 0.60192698 -0.77586901 4.5897233e-039
0.0849609 0.16144 0.66113299 0.185563 0.60207403 -0.77657801 4.5897233e-039
0.090820298 0.16113301 0.66213298 0.201801 0.62201101 -0.75655699 4.5897233e-039
0.096679702 0.16113301 0.663378 0.24113201 0.65103501 -0.71972799 4.5897233e-039
0.102539 0.16113301 0.66505498 0.23794401 0.66564298 -0.70732099 4.5897233e-039
0.108398 0.16113301 0.66660601 0.235117 0.68773299 -0.686836 4.5897233e-039
0.0029296901 0.181632 0.66699201 0.27121001 0.404524 -0.87338698 4.5897233e-039
0.0121914 0.178711 0.66699201 0.114044 0.57899898 -0.80731302 4.5897233e-039
0.0087890597 0.18039399 0.66699201 0.165755 0.522214 -0.83655101 4.5897233e-039
0.0146484 0.178711 0.66753399 0.100302 0.60400403 -0.790645 4.5897233e-039
0.020507799 0.178711 0.667656 0.103333 0.617239 -0.77995998 4.5897233e-039
0.026367201 0.178711 0.66835898 0.1066 0.64228398 -0.75901699 4.5897233e-039
0.0322266 0.178711 0.66865802 0.111859 0.66321898 -0.74001902 4.5897233e-039
0.0380859 0.178711 0.66936302 0.109636 0.66306299 -0.74049097 4.5897233e-039
0.043945301 0.178711 0.67045999 0.072191097 0.66767198 -0.74094701 4.5897233e-039
0.049804699 0.178711 0.67093301 0.061641801 0.66749501 -0.74205798 4.5897233e-039
0.0556641 0.178711 0.67143601 0.058336198 0.658485 -0.75032997 4.5897233e-039
0.0615234 0.178711 0.67189002 0.065686397 0.65208101 -0.75529802 4.5897233e-039
0.067382798 0.178711 0.67235899 0.123171 0.643785 -0.755229 4.5897233e-039
0.0556641 0.160703 0.65527302 0.121102 0.60067898 -0.79026502 4.5897233e-039
0.0615234 0.15899999 0.65527302 0.152399 0.55114597 -0.820373 4.5897233e-039
0.067382798 0.15764301 0.65527302 0.158723 0.547934 -0.821325 4.5897233e-039
0.075763099 0.15527301 0.65527302 0.16186599 0.559219 -0.81306398 4.5897233e-039
0.073242202 0.155871 0.65527302 0.16433901 0.553653 -0.81637001 4.5897233e-039
0.0791016 0.15527301 0.65584803 0.151361 0.553168 -0.81920397 4.5897233e-039
0.0849609 0.15527301 0.65706497 0.154394 0.55755901 -0.81565303 4.5897233e-039
0.090820298 0.15527301 0.65800601 0.168817 0.58707702 -0.79173303 4.5897233e-039
0.096679702 0.15527301 0.65895301 0.195834 0.614739 -0.76403201 4.5897233e-039
0.102539 0.15527301 0.65999502 0.232408 0.62937099 -0.74153799 4.5897233e-039
-0.114258 0.15527301 0.65379399 -0.229389 -0.039644498 -0.97252703 4.5897233e-039
-0.108398 0.15527301 0.65256202 -0.25818101 -0.12664101 -0.95775998 4.5897233e-039
-0.102539 0.15527301 0.65129602 -0.33776301 -0.225114 -0.91391498 4.5897233e-039
-0.096664801 0.15527301 0.649414 -0.36941901 -0.249089 -0.895257 4.5897233e-039
-0.096679702 0.155294 0.649414 -0.36892399 -0.24947099 -0.89535397 4.5897233e-039
-0.096679702 0.15527301 0.64942002 -0.369093 -0.24919599 -0.89536101 4.5897233e-039
-0.0322266 0.157225 0.649414 0.122221 0.402704 -0.907134 4.5897233e-039
-0.026367201 0.15604401 0.649414 0.00468435 0.512106 -0.85891002 4.5897233e-039
-0.020507799 0.156554 0.649414 -0.019365201 0.54706699 -0.83686501 4.5897233e-039
-0.0146484 0.156569 0.649414 -0.052029699 0.55431598 -0.83067799 4.5897233e-039
-0.0087890597 0.15710901 0.649414 -0.0495665 0.57463998 -0.81690401 4.5897233e-039
-0.0029296901 0.158048 0.649414 -0.0277841 0.58813798 -0.80828398 4.5897233e-039
0.073242202 0.17150199 0.66699201 0.114656 0.65688801 -0.74522001 4.5897233e-039
0.0791016 0.170388 0.66699201 0.15957899 0.631019 -0.75917703 4.5897233e-039
0.0849609 0.16895799 0.66699201 0.200986 0.63107902 -0.74922901 4.5897233e-039
0.092527397 0.16699199 0.66699201 0.242125 0.64584798 -0.72405499 4.5897233e-039
0.090820298 0.167578 0.66699201 0.228893 0.64627099 -0.72797102 4.5897233e-039
0.096679702 0.16699199 0.66848701 0.26098999 0.655931 -0.70826399 4.5897233e-039
0.102539 0.16699199 0.67027301 0.259693 0.676651 -0.688986 4.5897233e-039
0.108398 0.16699199 0.67234898 0.26879901 0.68008697 -0.68207699 4.5897233e-039
-0.114258 0.16113301 0.65331203 -0.28520399 -0.0117659 -0.958395 4.5897233e-039
-0.108398 0.16113301 0.652143 -0.36885399 -0.10078 -0.92400801 4.5897233e-039
-0.099994399 0.16113301 0.649414 -0.39763001 -0.24425501 -0.88443798 4.5897233e-039
-0.102539 0.16113301 0.65059298 -0.406041 -0.19738001 -0.89228499 4.5897233e-039
-0.037889 0.16113301 0.649414 0.34041801 0.15212201 -0.92788702 4.5897233e-039
-0.0380859 0.162679 0.649414 0.394813 0.037132401 -0.91801101 4.5897233e-039
-0.0322266 0.16113301 0.65104198 0.216785 0.31420001 -0.92427403 4.5897233e-039
-0.026367201 0.16113301 0.65206301 0.102584 0.44949701 -0.88737202 4.5897233e-039
-0.020507799 0.16113301 0.652381 0.016930699 0.53766102 -0.84299099 4.5897233e-039
-0.0146484 0.16113301 0.65232599 -0.036281701 0.586519 -0.80912298 4.5897233e-039
-0.0087890597 0.16113301 0.65197599 -0.018877 0.60637301 -0.79495603 4.5897233e-039
-0.0029296901 0.16113301 0.65152901 -0.020659 0.60944802 -0.792557 4.5897233e-039
0.0146484 0.178167 0.66699201 0.093364097 0.60806698 -0.78837597 4.5897233e-039
0.020507799 0.17807101 0.66699201 0.097475097 0.62260199 -0.77644402 4.5897233e-039
0.026367201 0.177302 0.66699201 0.085538402 0.658692 -0.74753398 4.5897233e-039
0.0322266 0.177132 0.66699201 0.100878 0.68480998 -0.72170597 4.5897233e-039
0.0380859 0.176615 0.66699201 0.116852 0.69018102 -0.71414 4.5897233e-039
0.043945301 0.17574 0.66699201 0.078646503 0.696518 -0.71321702 4.5897233e-039
0.049804699 0.175384 0.66699201 0.064315498 0.69318497 -0.717884 4.5897233e-039
0.0556641 0.174649 0.66699201 0.066876501 0.69404 -0.71682298 4.5897233e-039
0.0615234 0.17412999 0.66699201 0.090434603 0.67665398 -0.73072702 4.5897233e-039
0.067473099 0.17285199 0.66699201 0.12639 0.65581203 -0.74426901 4.5897233e-039
0.067382798 0.172874 0.66699201 0.12626 0.65583402 -0.74427199 4.5897233e-039
0.073242202 0.17285199 0.66829097 0.116765 0.65966201 -0.74243599 4.5897233e-039
0.0791016 0.17285199 0.66897202 0.16804001 0.67348802 -0.71984398 4.5897233e-039
0.0849609 0.17285199 0.670111 0.21963599 0.68688601 -0.692783 4.5897233e-039
0.090820298 0.17285199 0.67162198 0.239944 0.67216098 -0.70044702 4.5897233e-039
-0.114258 0.16699199 0.653054 -0.344506 0.034917101 -0.93813401 4.5897233e-039
-0.108398 0.16699199 0.65192199 -0.45419201 -0.034711599 -0.89022702 4.5897233e-039
-0.101395 0.16699199 0.649414 -0.46205199 -0.060838401 -0.884763 4.5897233e-039
-0.102539 0.16699199 0.65011001 -0.461218 -0.066486098 -0.88479197 4.5897233e-039
-0.0384035 0.16699199 0.649414 0.519458 -0.25382 -0.81592798 4.5897233e-039
-0.0380859 0.16744 0.649414 0.52401102 -0.28749299 -0.801723 4.5897233e-039
-0.0380859 0.16699199 0.64961499 0.51455098 -0.24243 -0.82247502 4.5897233e-039
-0.0322266 0.16699199 0.652421 0.40524301 -0.00107444 -0.91420799 4.5897233e-039
-0.026367201 0.16699199 0.65449798 0.27702501 0.228192 -0.93337297 4.5897233e-039
-0.114258 0.17285199 0.65405202 -0.393857 0.074751899 -0.91612703 4.5897233e-039
-0.108398 0.17285199 0.65253597 -0.481529 0.0227824 -0.87613398 4.5897233e-039
-0.101176 0.17285199 0.649414 -0.378259 0.14973 -0.91351002 4.5897233e-039
-0.102539 0.17285199 0.65025002 -0.39623699 0.106876 -0.91190702 4.5897233e-039
-0.034539301 0.17285199 0.649414 0.55378902 -0.52336103 -0.64761901 4.5897233e-039
-0.0322266 0.174721 0.649414 0.58108401 -0.55584198 -0.594459 4.5897233e-039
-0.0322266 0.17285199 0.65126097 0.56443501 -0.45951501 -0.685754 4.5897233e-039
-0.026367201 0.17285199 0.65510499 0.486184 -0.214788 -0.84704798 4.5897233e-039
-0.115093 0.178711 0.65527302 -0.439145 0.108694 -0.89181697 4.5897233e-039
-0.120117 0.178711 0.65945899 -0.47592101 0.068438001 -0.87682098 4.5897233e-039
-0.114258 0.18322501 0.65527302 -0.44091699 0.107199 -0.891123 4.5897233e-039
-0.022435199 0.178711 0.65527302 0.571899 -0.48139 -0.66422498 4.5897233e-039
-0.020507799 0.180439 0.65527302 0.57980502 -0.52580601 -0.62237799 4.5897233e-039
-0.020507799 0.178711 0.65670598 0.55919099 -0.41711399 -0.71646398 4.5897233e-039
-0.0146484 0.178711 0.66034698 0.495289 -0.175832 -0.850748 4.5897233e-039
-0.120117 0.18457 0.65901899 -0.44662699 0.117654 -0.88695103 4.5897233e-039
-0.113523 0.18457 0.65527302 -0.43772101 0.113917 -0.89186502 4.5897233e-039
-0.114258 0.18457 0.65557599 -0.44429001 0.117175 -0.88818699 4.5897233e-039
-0.016906399 0.18457 0.65527302 0.60813397 -0.53843099 -0.58332199 4.5897233e-039
-0.0146484 0.18686301 0.65527302 0.63954997 -0.51413202 -0.571527 4.5897233e-039
-0.0146484 0.18457 0.65757197 0.61079001 -0.485861 -0.62519902 4.5897233e-039
0.0146484 0.18941 0.67285198 0.25517601 0.14300901 -0.95626003 4.5897233e-039
0.022547601 0.18457 0.67285198 0.14169399 0.46451801 -0.87415397 4.5897233e-039
0.020507799 0.185644 0.67285198 0.16333 0.362827 -0.917431 4.5897233e-039
0.026367201 0.18457 0.67339402 0.153605 0.471553 -0.868357 4.5897233e-039
0.0322266 0.18457 0.67433 0.1433 0.49266601 -0.85833901 4.5897233e-039
0.0380859 0.18457 0.67511803 0.14041901 0.52705801 -0.83814901 4.5897233e-039
0.043945301 0.18457 0.67597401 0.071388699 0.55853999 -0.82639998 4.5897233e-039
0.049804699 0.18457 0.67627698 0.073326997 0.58172601 -0.81007302 4.5897233e-039
0.0556641 0.18457 0.67680103 0.065039203 0.59946698 -0.79775202 4.5897233e-039
0.0615234 0.18457 0.67704099 0.0734789 0.60247701 -0.79474699 4.5897233e-039
0.067382798 0.18457 0.67753702 0.095708899 0.59023601 -0.80153698 4.5897233e-039
0.073242202 0.18457 0.67829603 0.153006 0.57349497 -0.80479401 4.5897233e-039
0.096679702 0.16524801 0.66699201 0.24968401 0.65030599 -0.71746802 4.5897233e-039
0.102539 0.163114 0.66699201 0.25447199 0.65716398 -0.70949203 4.5897233e-039
0.109944 0.16113301 0.66699201 0.244845 0.69298398 -0.67810398 4.5897233e-039
0.108398 0.161484 0.66699201 0.240005 0.68737799 -0.68549901 4.5897233e-039
0.114258 0.16113301 0.66817099 0.26139301 0.70002699 -0.66455698 4.5897233e-039
0.120117 0.16113301 0.67038703 0.259754 0.71634197 -0.64759701 4.5897233e-039
0.12597699 0.16113301 0.67246598 0.294339 0.69665802 -0.65424198 4.5897233e-039
0.026367201 0.18406001 0.67285198 0.149414 0.49951801 -0.85332102 4.5897233e-039
0.0322266 0.183222 0.67285198 0.12850399 0.554708 -0.82206202 4.5897233e-039
0.0380859 0.18240499 0.67285198 0.112611 0.59373897 -0.79673898 4.5897233e-039
0.043945301 0.18148801 0.67285198 0.062279299 0.62139601 -0.78101701 4.5897233e-039
0.049804699 0.18096299 0.67285198 0.060389899 0.63150799 -0.77301401 4.5897233e-039
0.0556641 0.180416 0.67285198 0.051867601 0.64043897 -0.76625502 4.5897233e-039
0.0615234 0.179839 0.67285198 0.064669698 0.64959699 -0.757523 4.5897233e-039
0.0699002 0.178711 0.67285198 0.13658699 0.63511801 -0.760243 4.5897233e-039
0.067382798 0.17933001 0.67285198 0.120813 0.64244503 -0.75674897 4.5897233e-039
0.073242202 0.178711 0.67349601 0.14846399 0.64089602 -0.75313401 4.5897233e-039
0.0791016 0.178711 0.67442697 0.18447401 0.647089 -0.73976099 4.5897233e-039
0.0849609 0.178711 0.67592299 0.214895 0.66309398 -0.717026 4.5897233e-039
0.090820298 0.178711 0.67736501 0.27965799 0.64230299 -0.71360898 4.5897233e-039
0.090820298 0.159762 0.66113299 0.186884 0.60922903 -0.77065903 4.5897233e-039
0.096679702 0.15809999 0.66113299 0.213351 0.61809498 -0.756598 4.5897233e-039
0.106739 0.15527301 0.66113299 0.24067301 0.61481202 -0.751055 4.5897233e-039
0.102539 0.156569 0.66113299 0.223198 0.64182597 -0.73365003 4.5897233e-039
0.108398 0.15527301 0.66171497 0.239474 0.601403 -0.76221198 4.5897233e-039
0.114258 0.15527301 0.66407901 0.270327 0.60860401 -0.74600601 4.5897233e-039
0.120117 0.15527301 0.665649 0.28980401 0.61660099 -0.73199499 4.5897233e-039
0.096679702 0.17191599 0.67285198 0.267737 0.67633402 -0.68621302 4.5897233e-039
0.102539 0.169496 0.67285198 0.28556901 0.65289497 -0.70155501 4.5897233e-039
0.109647 0.16699199 0.67285198 0.26710999 0.68756098 -0.67521203 4.5897233e-039
0.108398 0.167493 0.67285198 0.27284601 0.68296802 -0.67757601 4.5897233e-039
