ply
format ascii 1.0
comment author Lingfeng Ai
element vertex 1745
property float x
property float y
property float z
end_header
0.155273 0.272461 0.969551
0.163278 0.260742 0.96582
0.161133 0.260742 0.971201
0.15364 0.27832 0.96582
0.149414 0.284075 0.96582
0.149414 0.27832 0.969922
0.149333 0.28418 0.96582
0.143555 0.287338 0.96582
0.143555 0.28418 0.970261
0.158575 0.266602 0.97168
0.155273 0.270858 0.97168
0.160858 0.260742 0.97168
0.13615 0.290039 0.96582
0.131836 0.291879 0.96582
0.156798 0.260742 0.977539
0.155975 0.266602 0.977539
0.155273 0.267438 0.977539
0.155273 0.266602 0.979062
-0.243164 0.317051 0.842773
-0.237305 0.318394 0.842773
-0.249023 0.313031 0.854492
-0.254883 0.323722 0.836914
-0.249023 0.322971 0.836914
-0.243164 0.324291 0.836914
-0.243164 0.319336 0.839399
-0.237305 0.322705 0.836914
-0.237305 0.319336 0.841463
-0.254883 0.32976 0.831055
-0.254883 0.325195 0.834386
-0.249023 0.325195 0.833578
-0.243164 0.325195 0.836387
-0.237305 0.325195 0.834417
-0.254883 0.318606 0.848633
-0.249023 0.315124 0.848633
-0.249023 0.313477 0.851272
-0.243164 0.313933 0.848633
-0.237305 0.316228 0.848633
-0.231445 0.318583 0.848633
-0.260742 0.323653 0.842773
-0.254883 0.320317 0.842773
-0.254883 0.319336 0.844411
-0.248296 0.319336 0.842773
-0.249023 0.319623 0.842773
-0.249023 0.319336 0.843152
-0.234814 0.319336 0.842773
-0.231445 0.324468 0.842773
-0.231445 0.319336 0.846281
-0.257964 0.325195 0.836914
-0.260742 0.326818 0.836914
-0.260742 0.325195 0.838376
-0.234894 0.325195 0.836914
-0.231445 0.325195 0.842483
-0.237305 0.313078 0.866211
-0.249719 0.313477 0.854492
-0.254883 0.317961 0.854492
-0.24396 0.313477 0.854492
-0.249023 0.313477 0.859601
-0.243164 0.313695 0.854492
-0.237305 0.31522 0.854492
-0.231445 0.317484 0.854492
-0.272461 0.324716 0.848633
-0.266602 0.323898 0.848633
-0.255614 0.319336 0.848633
-0.260742 0.323688 0.848633
-0.230398 0.319336 0.848633
-0.237305 0.312262 0.87207
-0.272461 0.325195 0.847634
-0.264855 0.325195 0.842773
-0.266602 0.326725 0.842773
-0.266602 0.325195 0.844545
-0.23134 0.325195 0.842773
-0.231445 0.325454 0.842773
-0.18457 0.32485 0.942383
-0.254883 0.31717 0.860352
-0.249023 0.313646 0.860352
-0.243164 0.31435 0.860352
-0.237305 0.314879 0.860352
-0.237305 0.313477 0.864729
-0.231445 0.314521 0.860352
-0.272461 0.324216 0.854492
-0.266602 0.322907 0.854492
-0.256501 0.319336 0.854492
-0.260742 0.322609 0.854492
-0.229457 0.319336 0.854492
-0.237305 0.312943 0.87793
-0.231445 0.312957 0.87793
-0.18457 0.329053 0.936523
-0.18457 0.325195 0.941234
-0.178711 0.331014 0.936523
-0.273112 0.325195 0.848633
-0.272461 0.326085 0.848633
-0.230205 0.325195 0.848633
-0.231445 0.328441 0.848633
-0.18457 0.323633 0.948242
-0.18457 0.319025 0.96582
-0.254883 0.316497 0.866211
-0.249023 0.316325 0.866211
-0.239257 0.313477 0.866211
-0.243164 0.314529 0.866211
-0.234307 0.313477 0.866211
-0.231445 0.314214 0.866211
-0.27832 0.322678 0.860352
-0.27832 0.319336 0.865675
-0.272461 0.322806 0.860352
-0.25824 0.319336 0.860352
-0.260742 0.321324 0.860352
-0.228545 0.319336 0.860352
-0.237305 0.313137 0.883789
-0.231445 0.312627 0.883789
-0.183738 0.325195 0.942383
-0.178711 0.329574 0.942383
-0.273999 0.325195 0.854492
-0.27832 0.327914 0.854492
-0.27832 0.325195 0.857795
-0.266602 0.325195 0.859351
-0.228472 0.325195 0.854492
-0.18457 0.322113 0.954102
-0.18457 0.317378 0.97168
-0.178711 0.318236 0.97168
-0.18457 0.313189 0.989258
-0.254883 0.317275 0.87207
-0.249023 0.315998 0.87207
-0.23957 0.313477 0.87207
-0.243164 0.315799 0.87207
-0.233104 0.313477 0.87207
-0.231445 0.314789 0.87207
-0.231445 0.313477 0.875277
-0.225586 0.316411 0.87207
-0.231445 0.307617 0.895041
-0.277595 0.319336 0.866211
-0.272461 0.324176 0.866211
-0.272461 0.319336 0.871651
-0.259501 0.319336 0.866211
-0.260742 0.320514 0.866211
-0.226378 0.319336 0.866211
-0.225586 0.319336 0.867569
-0.181002 0.325195 0.948242
-0.178711 0.327005 0.948242
-0.18457 0.321803 0.959961
-0.18457 0.319336 0.964907
-0.178711 0.323699 0.959961
-0.268126 0.325195 0.860352
-0.265979 0.325195 0.860352
-0.266602 0.325741 0.860352
-0.22758 0.325195 0.860352
-0.18457 0.316497 0.977539
-0.178711 0.317309 0.977539
-0.172852 0.318339 0.977539
-0.254883 0.31804 0.87793
-0.249023 0.316144 0.87793
-0.238955 0.313477 0.87793
-0.243164 0.314954 0.87793
-0.22882 0.313477 0.87793
-0.225586 0.315062 0.87793
-0.249023 0.307617 0.898639
-0.243164 0.307617 0.898281
-0.233052 0.307617 0.895508
-0.237305 0.309976 0.895508
-0.237305 0.307617 0.896878
-0.231067 0.307617 0.895508
-0.231445 0.310693 0.895508
-0.179739 0.325195 0.954102
-0.178711 0.326037 0.954102
-0.178711 0.325195 0.956656
-0.172852 0.328546 0.954102
-0.166992 0.329861 0.954102
-0.27169 0.319336 0.87207
-0.266602 0.321693 0.87207
-0.266602 0.319336 0.875476
-0.258924 0.319336 0.87207
-0.260742 0.320194 0.87207
-0.223283 0.319336 0.87207
-0.182891 0.319336 0.96582
-0.178711 0.320652 0.96582
-0.178711 0.319336 0.96812
-0.172852 0.322036 0.96582
-0.271537 0.325195 0.866211
-0.265156 0.325195 0.866211
-0.266602 0.326233 0.866211
-0.266602 0.325195 0.869714
-0.226169 0.325195 0.866211
-0.225586 0.330134 0.866211
-0.225586 0.325195 0.869469
-0.18457 0.315095 0.983398
-0.18457 0.313477 0.987997
-0.178711 0.316326 0.983398
-0.172852 0.31779 0.983398
0.102539 0.330096 0.842773
0.108398 0.329826 0.842773
0.114258 0.330618 0.842773
-0.260742 0.318913 0.883789
-0.260742 0.313477 0.885714
-0.254883 0.313477 0.888122
-0.249023 0.315812 0.883789
-0.239175 0.313477 0.883789
-0.243164 0.313931 0.883789
-0.237305 0.313477 0.886199
-0.228069 0.313477 0.883789
-0.231445 0.313477 0.885929
-0.225586 0.314409 0.883789
-0.219727 0.317616 0.883789
-0.174436 0.325195 0.959961
-0.172852 0.325623 0.959961
-0.172852 0.325195 0.960982
-0.166992 0.327766 0.959961
-0.161133 0.330508 0.959961
0.102539 0.324389 0.854492
0.108398 0.323939 0.854492
0.114258 0.324373 0.854492
0.120117 0.325174 0.854492
-0.228621 0.307617 0.901367
-0.225586 0.31242 0.901367
-0.262935 0.319336 0.87793
-0.258939 0.319336 0.87793
-0.260742 0.319552 0.87793
-0.260742 0.319336 0.882978
-0.254883 0.319336 0.882378
-0.222266 0.319336 0.87793
-0.219727 0.324703 0.87793
-0.219727 0.319336 0.88228
-0.174861 0.319336 0.97168
-0.172852 0.320256 0.97168
-0.172852 0.319336 0.973618
-0.166992 0.323772 0.97168
-0.223281 0.325195 0.87207
-0.219727 0.328129 0.87207
-0.219727 0.325195 0.876904
-0.183837 0.313477 0.989258
-0.18457 0.313477 0.991382
-0.178711 0.315769 0.989258
-0.172852 0.317736 0.989258
-0.166992 0.318928 0.989258
0.0966797 0.329164 0.848633
0.102539 0.326154 0.848633
0.102539 0.325195 0.850713
0.108398 0.326804 0.848633
0.108398 0.325195 0.851409
0.114258 0.327294 0.848633
0.114258 0.325195 0.852558
0.120117 0.328568 0.848633
0.120117 0.325195 0.854448
0.125977 0.330274 0.848633
-0.253011 0.313477 0.889648
-0.249023 0.31507 0.889648
-0.243164 0.314212 0.889648
-0.237305 0.313829 0.889648
-0.237305 0.313477 0.891414
-0.231445 0.314713 0.889648
-0.225586 0.314406 0.889648
-0.219727 0.314701 0.889648
0.19043 0.307617 0.926698
0.196289 0.307617 0.926811
0.202148 0.307617 0.927616
0.208008 0.307617 0.928194
0.213867 0.307617 0.929452
0.19043 0.325195 0.923027
0.19043 0.301758 0.927579
0.196289 0.301758 0.927299
0.202148 0.301758 0.927534
0.208008 0.301758 0.927818
0.213867 0.301758 0.928967
0.219727 0.301758 0.9296
-0.168902 0.325195 0.96582
-0.166992 0.32635 0.96582
-0.166992 0.325195 0.968786
-0.161133 0.329955 0.96582
0.0966797 0.324889 0.860352
0.102539 0.322958 0.860352
0.108398 0.321526 0.860352
0.114258 0.322285 0.860352
0.120117 0.323295 0.860352
0.125977 0.325195 0.860352
0.19043 0.313477 0.92683
0.196289 0.313477 0.926775
0.202148 0.313477 0.926682
0.208008 0.313477 0.928345
0.213867 0.313477 0.930302
-0.225586 0.312747 0.907227
0.19043 0.295898 0.928755
0.196289 0.295898 0.928139
0.202148 0.295898 0.92865
0.208008 0.295898 0.928771
0.213867 0.295898 0.929426
0.219727 0.295898 0.930516
-0.170117 0.319336 0.977539
-0.166992 0.321229 0.977539
-0.161133 0.32478 0.977539
0.120117 0.319283 0.87793
0.125977 0.319008 0.87793
0.19043 0.320111 0.924805
0.19043 0.319336 0.925124
0.196289 0.319336 0.926087
0.202148 0.319336 0.926544
0.208008 0.319336 0.927571
-0.219299 0.325195 0.87793
-0.259665 0.319336 0.883789
-0.254383 0.319336 0.883789
-0.254883 0.319497 0.883789
-0.254883 0.319336 0.884526
-0.218623 0.319336 0.883789
-0.18457 0.314052 0.995117
-0.178711 0.315825 0.995117
-0.172852 0.316888 0.995117
0.18457 0.295898 0.930521
0.0992811 0.325195 0.854492
0.0966797 0.32618 0.854492
0.0966797 0.325195 0.85822
0.12018 0.325195 0.854492
0.125977 0.327343 0.854492
0.125977 0.325195 0.860351
-0.249588 0.313477 0.895508
-0.249023 0.313714 0.895508
-0.249023 0.313477 0.896144
-0.241828 0.313477 0.895508
-0.243164 0.313689 0.895508
-0.243164 0.313477 0.896099
-0.232542 0.313477 0.895508
-0.231445 0.31368 0.895508
-0.231445 0.313477 0.896058
-0.225586 0.313814 0.895508
-0.225586 0.313477 0.897325
-0.219727 0.316381 0.895508
0.195345 0.325195 0.924805
0.196289 0.32676 0.924805
0.196289 0.325195 0.925177
0.202148 0.325195 0.92681
0.208008 0.325195 0.927861
0.21965 0.307617 0.930664
0.219727 0.307617 0.93068
0.225586 0.307617 0.932463
0.231445 0.307617 0.935086
0.237305 0.307617 0.936212
0.222355 0.301758 0.930664
0.219727 0.307531 0.930664
0.225586 0.301758 0.93211
0.231445 0.301758 0.933957
0.237305 0.301758 0.934745
0.243164 0.301758 0.935554
0.249023 0.301758 0.935416
0.254883 0.301758 0.936273
0.0966797 0.324423 0.866211
0.102539 0.322127 0.866211
0.108398 0.321053 0.866211
0.114258 0.320851 0.866211
0.120117 0.321203 0.866211
0.125977 0.322218 0.866211
0.214953 0.313477 0.930664
0.213867 0.317864 0.930664
0.219727 0.313477 0.932168
0.225586 0.313477 0.933455
0.231445 0.313477 0.936071
-0.165111 0.325195 0.97168
-0.161133 0.327386 0.97168
-0.161133 0.325195 0.976669
0.220376 0.295898 0.930664
0.225586 0.295898 0.931878
0.231445 0.295898 0.932619
0.237305 0.295898 0.933653
0.243164 0.295898 0.93439
0.249023 0.295898 0.933619
0.254883 0.295898 0.934391
0.260742 0.295898 0.935723
0.114258 0.319119 0.883789
0.120117 0.318222 0.883789
0.125977 0.318862 0.883789
-0.168358 0.319336 0.983398
-0.166992 0.320039 0.983398
-0.166992 0.319336 0.986438
-0.161133 0.322421 0.983398
-0.155273 0.325187 0.983398
0.213631 0.319336 0.930664
0.213867 0.319336 0.930784
0.219727 0.319336 0.932689
0.225586 0.319336 0.934741
0.18457 0.301758 0.92944
-0.216985 0.325195 0.883789
-0.213867 0.327474 0.883789
-0.213867 0.325195 0.885462
-0.18457 0.313509 1.00098
-0.178711 0.314467 1.00098
-0.216178 0.319336 0.889648
-0.213867 0.32229 0.889648
-0.231445 0.312837 0.918945
0.184315 0.295898 0.930664
0.178711 0.295898 0.93391
0.114258 0.31328 0.907227
0.2387 0.307617 0.936523
0.237305 0.308765 0.936523
0.243164 0.307617 0.937533
0.249023 0.307617 0.937671
0.254883 0.307617 0.938382
0.260742 0.307617 0.938935
0.266602 0.307617 0.939123
0.213828 0.325195 0.930664
0.213867 0.325195 0.930681
0.219727 0.325195 0.933615
0.225586 0.325195 0.935968
-0.224865 0.313477 0.901367
-0.219727 0.316561 0.901367
0.0961109 0.325195 0.860352
0.0908203 0.329277 0.860352
0.125977 0.325195 0.860352
0.0966797 0.323714 0.87207
0.102539 0.321105 0.87207
0.108398 0.320633 0.87207
0.114258 0.320735 0.87207
0.120117 0.320193 0.87207
0.120117 0.319336 0.877443
0.125977 0.319514 0.87207
0.125977 0.319336 0.873084
0.131836 0.324198 0.87207
0.243164 0.304536 0.936523
0.249023 0.304426 0.936523
0.255975 0.301758 0.936523
0.254883 0.302457 0.936523
0.260742 0.301758 0.937471
0.266602 0.301758 0.937502
0.264687 0.295898 0.936523
0.260742 0.298423 0.936523
0.266602 0.295898 0.936958
0.272461 0.295898 0.938607
0.108398 0.318648 0.889648
0.114258 0.318431 0.889648
0.120117 0.318154 0.889648
0.125977 0.319104 0.889648
0.229514 0.319336 0.936523
0.231445 0.319336 0.937407
0.237305 0.319336 0.939045
0.243164 0.319336 0.941236
-0.166104 0.319336 0.989258
-0.161133 0.322002 0.989258
-0.155273 0.323528 0.989258
0.232895 0.313477 0.936523
0.231445 0.315394 0.936523
0.237305 0.313477 0.937813
0.243164 0.313477 0.939151
0.249023 0.313477 0.940336
0.254883 0.313477 0.94154
0.260742 0.313477 0.940779
-0.160321 0.325195 0.977539
-0.155273 0.325195 0.98338
-0.217555 0.319336 0.895508
-0.213867 0.323879 0.895508
0.120117 0.306404 0.930664
0.125977 0.30635 0.930664
0.137695 0.307587 0.930664
0.143555 0.306328 0.930664
0.143555 0.301758 0.935355
0.149414 0.30738 0.930664
0.161133 0.301758 0.936478
0.166992 0.301758 0.935944
0.172852 0.306885 0.930664
0.172852 0.301758 0.934421
0.181886 0.301758 0.930664
0.178711 0.304444 0.930664
0.178711 0.301758 0.932326
-0.21134 0.325195 0.889648
-0.208008 0.329861 0.889648
-0.231445 0.310589 0.924805
0.143555 0.300907 0.936523
0.149414 0.295898 0.94195
0.155273 0.295898 0.94096
0.161133 0.301693 0.936523
0.161133 0.295898 0.940991
0.166992 0.301054 0.936523
0.166992 0.295898 0.940151
0.173045 0.295898 0.936523
0.172852 0.296141 0.936523
0.172852 0.295898 0.936634
0.108398 0.312509 0.913086
0.114258 0.312578 0.913086
0.22679 0.325195 0.936523
0.225586 0.327136 0.936523
0.231445 0.325195 0.938591
0.237305 0.325195 0.941021
-0.224149 0.313477 0.907227
-0.225586 0.313477 0.912825
0.108398 0.317222 0.895508
0.114258 0.316728 0.895508
0.120117 0.317049 0.895508
0.125977 0.31918 0.895508
0.0955809 0.325195 0.866211
0.0908203 0.328294 0.866211
0.130055 0.325195 0.866211
0.131836 0.326613 0.866211
0.131836 0.325195 0.868173
-0.165133 0.319336 0.995117
-0.161133 0.321165 0.995117
-0.155273 0.322166 0.995117
0.249023 0.317908 0.942383
0.254883 0.314738 0.942383
0.0966797 0.322728 0.87793
0.102539 0.320536 0.87793
0.108398 0.319661 0.87793
0.119595 0.319336 0.87793
0.114258 0.31991 0.87793
0.114258 0.319336 0.882403
0.126627 0.319336 0.87793
0.131836 0.322453 0.87793
0.246824 0.319336 0.942383
0.243164 0.321972 0.942383
0.249023 0.319336 0.943028
0.25724 0.319336 0.942383
0.254883 0.319336 0.945304
0.260742 0.320469 0.942383
-0.155249 0.325195 0.983398
-0.149414 0.330747 0.983398
-0.149414 0.325195 0.987048
-0.211406 0.325195 0.895508
-0.208008 0.328192 0.895508
-0.218261 0.319336 0.901367
-0.219727 0.319336 0.906401
-0.213867 0.324214 0.901367
0.114258 0.305293 0.936523
0.120117 0.304083 0.936523
0.125977 0.304162 0.936523
0.131836 0.304456 0.936523
0.141179 0.301758 0.936523
0.137695 0.303187 0.936523
0.137695 0.301758 0.938323
0.148841 0.301758 0.936523
0.149414 0.301877 0.936523
0.149414 0.301758 0.936644
0.155687 0.301758 0.936523
0.155273 0.301763 0.936523
0.155273 0.301758 0.936527
0.102539 0.313114 0.918945
0.108398 0.311939 0.918945
0.114258 0.311523 0.918945
0.120117 0.311997 0.918945
0.125977 0.312037 0.918945
-0.225675 0.313477 0.913086
-0.225586 0.313536 0.913086
0.137695 0.29965 0.942383
0.148679 0.295898 0.942383
0.143555 0.297505 0.942383
0.143555 0.295898 0.945381
0.240366 0.325195 0.942383
0.237305 0.328602 0.942383
0.243164 0.325195 0.943624
0.249023 0.325195 0.946401
0.254883 0.325195 0.948141
-0.163257 0.319336 1.00098
-0.161133 0.319674 1.00098
0.102539 0.318842 0.901367
0.108398 0.315881 0.901367
0.114258 0.314849 0.901367
0.114258 0.313477 0.906023
0.120117 0.315904 0.901367
0.125977 0.317892 0.901367
-0.148293 0.325195 0.989258
0.0849609 0.331034 0.87207
0.0945421 0.325195 0.87207
0.0908203 0.327237 0.87207
0.132982 0.325195 0.87207
0.137695 0.330787 0.87207
0.260742 0.321512 0.948242
0.0908203 0.324978 0.883789
0.0966797 0.322129 0.883789
0.102539 0.319836 0.883789
0.108743 0.319336 0.883789
0.108398 0.319348 0.883789
0.108398 0.319336 0.883916
0.127042 0.319336 0.883789
0.131836 0.321434 0.883789
-0.210179 0.325195 0.901367
-0.208008 0.327767 0.901367
-0.220284 0.319336 0.907227
-0.219727 0.319887 0.907227
-0.213867 0.323609 0.907227
0.102539 0.311787 0.924805
0.108398 0.310747 0.924805
0.114258 0.310174 0.924805
0.120117 0.309326 0.924805
0.120117 0.307617 0.927902
0.125977 0.308184 0.924805
0.125977 0.307617 0.926129
0.131836 0.310048 0.924805
0.137695 0.311416 0.924805
0.137695 0.307617 0.930618
0.143555 0.312817 0.924805
0.143555 0.307617 0.929469
0.149414 0.312658 0.924805
0.149414 0.307617 0.930423
0.155273 0.31237 0.924805
0.172852 0.307617 0.930157
0.178711 0.307617 0.928969
0.18457 0.307617 0.928039
0.108398 0.305576 0.942383
0.114258 0.303589 0.942383
0.120117 0.302527 0.942383
0.125977 0.302835 0.942383
0.131957 0.301758 0.942383
0.131836 0.3018 0.942383
0.131836 0.301758 0.942548
-0.228674 0.313477 0.918945
-0.225586 0.315704 0.918945
-0.149414 0.325195 0.999383
0.131836 0.300304 0.948242
0.140778 0.295898 0.948242
0.137695 0.297363 0.948242
0.137695 0.295898 0.952628
0.249023 0.328756 0.948242
0.254981 0.325195 0.948242
0.254883 0.325334 0.948242
0.260742 0.325195 0.95213
0.0849609 0.330794 0.87793
0.0929295 0.325195 0.87793
0.0908203 0.326379 0.87793
0.0908203 0.325195 0.882799
0.134816 0.325195 0.87793
0.137695 0.329775 0.87793
0.102539 0.317237 0.907227
0.11186 0.313477 0.907227
0.108398 0.313987 0.907227
0.108398 0.313477 0.908657
0.115198 0.313477 0.907227
0.120117 0.314782 0.907227
0.125977 0.316038 0.907227
0.131836 0.31746 0.907227
0.0908203 0.324215 0.889648
0.0966797 0.321836 0.889648
0.105873 0.319336 0.889648
0.102539 0.319996 0.889648
0.126406 0.319336 0.889648
0.131836 0.321245 0.889648
0.137695 0.325175 0.889648
-0.222185 0.319336 0.913086
-0.219727 0.32356 0.913086
-0.208008 0.325096 0.913086
-0.231445 0.330135 0.907227
-0.208663 0.325195 0.907227
-0.213867 0.325195 0.910945
-0.208008 0.326196 0.907227
-0.208008 0.325195 0.911364
-0.150673 0.325195 1.00098
-0.149414 0.325968 1.00098
-0.228123 0.313477 0.924805
-0.231445 0.313477 0.928015
-0.225586 0.317301 0.924805
0.114258 0.302779 0.948242
0.120117 0.302024 0.948242
0.120117 0.301758 0.950091
0.126797 0.301758 0.948242
0.125977 0.301921 0.948242
0.125977 0.301758 0.949316
0.0966797 0.313156 0.930664
0.102539 0.311344 0.930664
0.108398 0.309357 0.930664
0.115916 0.307617 0.930664
0.114258 0.308108 0.930664
0.114258 0.307617 0.931887
0.131621 0.307617 0.930664
0.13616 0.307617 0.930664
0.131836 0.307669 0.930664
0.131836 0.307617 0.930775
0.15031 0.307617 0.930664
0.155273 0.30858 0.930664
0.155273 0.307617 0.931989
0.161133 0.308555 0.930664
0.161133 0.307617 0.9316
0.168957 0.307617 0.930664
0.166992 0.308168 0.930664
0.166992 0.307617 0.930965
0.260742 0.327373 0.954102
0.120117 0.300948 0.954102
0.125977 0.300449 0.954102
0.136543 0.295898 0.954102
0.131836 0.298216 0.954102
0.131836 0.295898 0.957655
0.0904505 0.325195 0.883789
0.0849609 0.329495 0.883789
0.136095 0.325195 0.883789
0.137695 0.327291 0.883789
0.137695 0.325195 0.889587
-0.222867 0.319336 0.918945
-0.225586 0.323612 0.918945
-0.213867 0.324224 0.918945
0.0966797 0.319076 0.913086
0.105068 0.313477 0.913086
0.102539 0.314749 0.913086
0.102539 0.313477 0.917067
0.11875 0.313477 0.913086
0.120117 0.313773 0.913086
0.120117 0.313477 0.914491
0.125977 0.314631 0.913086
0.125977 0.313477 0.916677
0.131836 0.315642 0.913086
0.137695 0.317728 0.913086
0.0908203 0.324048 0.895508
0.0966797 0.321579 0.895508
0.103265 0.319336 0.895508
0.102539 0.31955 0.895508
0.102539 0.319336 0.897978
0.126305 0.319336 0.895508
0.131836 0.320817 0.895508
0.137695 0.323649 0.895508
-0.231445 0.330269 0.913086
-0.225586 0.329748 0.913086
-0.225586 0.325195 0.918245
-0.2169 0.325195 0.913086
-0.219727 0.325195 0.915026
-0.208497 0.325195 0.913086
-0.213867 0.326498 0.913086
-0.213867 0.325195 0.916308
-0.207885 0.325195 0.913086
-0.208008 0.325195 0.91335
-0.202148 0.330911 0.913086
-0.231445 0.318658 0.930664
0.116326 0.301758 0.954102
0.114258 0.302037 0.954102
0.114258 0.301758 0.95531
0.120117 0.300071 0.959961
0.128231 0.295898 0.959961
0.125977 0.296985 0.959961
0.125977 0.295898 0.960974
0.102539 0.310045 0.936523
0.102539 0.307617 0.940831
0.108952 0.307617 0.936523
0.108398 0.307788 0.936523
0.108398 0.307617 0.936927
0.0889578 0.325195 0.889648
0.0849609 0.328413 0.889648
0.137722 0.325195 0.889648
0.143555 0.330781 0.889648
-0.2228 0.319336 0.924805
-0.225586 0.319336 0.929009
-0.213867 0.324772 0.924805
0.266602 0.329828 0.96582
0.0908203 0.323198 0.901367
0.101536 0.319336 0.901367
0.0966797 0.320825 0.901367
0.130993 0.319336 0.901367
0.131836 0.31949 0.901367
0.131836 0.319336 0.901973
0.137695 0.322213 0.901367
0.10134 0.313477 0.918945
0.0966797 0.316488 0.918945
0.131088 0.313477 0.918945
0.131836 0.313603 0.918945
0.131836 0.313477 0.919248
0.137695 0.315333 0.918945
0.137695 0.313477 0.922478
0.143555 0.31726 0.918945
0.143555 0.313477 0.924178
0.149414 0.313477 0.923845
0.155273 0.313477 0.923262
-0.226169 0.325195 0.918945
-0.231445 0.330782 0.918945
-0.225586 0.325195 0.919948
-0.215643 0.325195 0.918945
-0.219727 0.327803 0.918945
-0.212123 0.325195 0.918945
-0.208008 0.327621 0.918945
0.0791016 0.330697 0.895508
0.0869268 0.325195 0.895508
0.0849609 0.326059 0.895508
0.139504 0.325195 0.895508
0.143555 0.328579 0.895508
-0.237305 0.319336 0.934777
-0.229085 0.319336 0.930664
-0.231445 0.319336 0.933119
-0.225586 0.320612 0.930664
0.0908203 0.323186 0.907227
0.0979788 0.319336 0.907227
0.0966797 0.319759 0.907227
0.0966797 0.319336 0.911618
0.136647 0.319336 0.907227
0.137695 0.319784 0.907227
0.137695 0.319336 0.908483
0.143555 0.323943 0.907227
0.097708 0.313477 0.924805
0.0966797 0.314205 0.924805
0.0966797 0.313477 0.928386
0.158423 0.313477 0.924805
0.161133 0.315032 0.924805
0.161133 0.313477 0.926159
0.166992 0.317241 0.924805
0.166992 0.313477 0.927756
0.172852 0.318521 0.924805
0.172852 0.313477 0.927339
0.178711 0.313477 0.927215
0.18457 0.313477 0.927479
-0.19043 0.312809 0.989258
-0.221153 0.325195 0.924805
-0.225586 0.33018 0.924805
-0.21514 0.325195 0.924805
-0.219727 0.326215 0.924805
-0.213143 0.325195 0.924805
-0.213867 0.325195 0.925871
-0.208008 0.327583 0.924805
0.0791016 0.32997 0.901367
0.0887086 0.325195 0.901367
0.0849609 0.327711 0.901367
0.14135 0.325195 0.901367
0.143555 0.32671 0.901367
0.143555 0.325195 0.90504
0.149414 0.330848 0.901367
-0.231445 0.320205 0.936523
-0.225586 0.321096 0.936523
-0.219727 0.324095 0.936523
0.0964975 0.319336 0.913086
0.0908203 0.322364 0.913086
0.141633 0.319336 0.913086
0.143555 0.320338 0.913086
0.143555 0.319336 0.915162
-0.219727 0.313477 0.965397
-0.237305 0.325195 0.936069
-0.220248 0.325195 0.930664
-0.219727 0.326415 0.930664
-0.219727 0.325195 0.933377
-0.213867 0.326546 0.930664
-0.208008 0.328689 0.930664
-0.196289 0.310935 0.995117
-0.19043 0.311219 0.995117
0.0791016 0.330145 0.907227
0.0883075 0.325195 0.907227
0.0849609 0.327255 0.907227
0.144956 0.325195 0.907227
0.149414 0.328633 0.907227
-0.237305 0.322619 0.942383
-0.231445 0.320082 0.942383
-0.225586 0.321446 0.942383
-0.219727 0.323581 0.942383
-0.213867 0.324834 0.942383
-0.202148 0.324904 0.942383
-0.196289 0.323986 0.942383
-0.19043 0.32434 0.942383
0.0951737 0.319336 0.918945
0.0908203 0.322665 0.918945
0.149037 0.319336 0.918945
0.149414 0.31952 0.918945
0.149414 0.319336 0.919151
0.155273 0.321881 0.918945
0.155273 0.319336 0.920511
0.161133 0.319336 0.921909
0.166992 0.319336 0.923465
0.172852 0.319336 0.924425
-0.19043 0.308578 1.00098
-0.239099 0.325195 0.936523
-0.236865 0.325195 0.936523
-0.237305 0.326199 0.936523
-0.237305 0.325195 0.938271
-0.217292 0.325195 0.936523
-0.213867 0.326113 0.936523
-0.213867 0.325195 0.940989
-0.208008 0.328484 0.936523
-0.202148 0.327923 0.936523
-0.202148 0.325195 0.941546
-0.196289 0.328201 0.936523
-0.196289 0.325195 0.939596
-0.19043 0.329456 0.936523
-0.19043 0.325195 0.940776
-0.219582 0.313477 0.96582
-0.219727 0.315004 0.96582
-0.196289 0.319156 0.96582
-0.19043 0.318544 0.96582
0.0876926 0.325195 0.913086
0.0849609 0.32725 0.913086
0.149119 0.325195 0.913086
0.149414 0.325422 0.913086
0.149414 0.325195 0.913452
0.155273 0.329225 0.913086
0.155273 0.325195 0.917059
-0.237305 0.322168 0.948242
-0.237305 0.319336 0.954079
-0.231445 0.32085 0.948242
-0.231445 0.319336 0.952978
-0.225586 0.320712 0.948242
-0.225586 0.319336 0.951534
-0.219727 0.322501 0.948242
-0.213867 0.324071 0.948242
-0.208008 0.32352 0.948242
-0.202148 0.322339 0.948242
-0.196289 0.322712 0.948242
-0.19043 0.322919 0.948242
0.0934179 0.319336 0.924805
0.0908203 0.32513 0.924805
0.0908203 0.319336 0.930199
0.176551 0.319336 0.924805
0.178711 0.320113 0.924805
0.178711 0.319336 0.925034
0.18457 0.319379 0.924805
0.18457 0.319336 0.924825
-0.210729 0.325195 0.942383
-0.204532 0.325195 0.942383
-0.208008 0.325724 0.942383
-0.208008 0.325195 0.943333
-0.202148 0.318688 0.97168
-0.196289 0.316798 0.97168
-0.19043 0.31708 0.97168
-0.22382 0.319336 0.954102
-0.219727 0.321895 0.954102
-0.213867 0.323466 0.954102
-0.208008 0.32314 0.954102
-0.202148 0.322488 0.954102
-0.196289 0.322211 0.954102
-0.19043 0.321882 0.954102
0.087991 0.325195 0.918945
0.0849609 0.329171 0.918945
0.158932 0.325195 0.918945
0.161133 0.326583 0.918945
0.161133 0.325195 0.920101
0.166992 0.327878 0.918945
0.166992 0.325195 0.921369
0.172852 0.329308 0.918945
0.172852 0.325195 0.92248
0.178711 0.325195 0.922883
0.18457 0.325195 0.922565
0.0905119 0.319336 0.930664
0.090773 0.325195 0.924805
0.0849609 0.327914 0.924805
-0.202148 0.316449 0.977539
-0.196289 0.31544 0.977539
-0.19043 0.315531 0.977539
-0.221779 0.319336 0.959961
-0.219727 0.321046 0.959961
-0.213867 0.323256 0.959961
-0.208008 0.323321 0.959961
-0.202148 0.321821 0.959961
-0.196289 0.320941 0.959961
-0.196289 0.319336 0.965471
-0.19043 0.320561 0.959961
-0.19043 0.319336 0.963542
0.0885179 0.325195 0.930664
0.0849609 0.327629 0.930664
-0.22125 0.319336 0.96582
-0.219727 0.320056 0.96582
-0.219727 0.319336 0.968993
-0.213867 0.322582 0.96582
-0.208008 0.322296 0.96582
-0.196688 0.319336 0.96582
-0.202148 0.320502 0.96582
-0.202148 0.319336 0.970099
-0.208008 0.316859 0.983398
-0.202148 0.314386 0.983398
-0.202148 0.313477 0.987101
-0.196289 0.314689 0.983398
-0.19043 0.314339 0.983398
-0.19043 0.313477 0.986407
-0.219019 0.319336 0.97168
-0.213867 0.322414 0.97168
-0.203424 0.319336 0.97168
-0.208008 0.322188 0.97168
0.086536 0.325195 0.936523
0.0849609 0.326477 0.936523
0.0849609 0.325195 0.938409
-0.196957 0.313477 0.989258
-0.195857 0.313477 0.989258
-0.196289 0.313534 0.989258
-0.196289 0.313477 0.98942
-0.216916 0.319336 0.977539
-0.213867 0.322584 0.977539
-0.207108 0.319336 0.977539
-0.208008 0.320107 0.977539
-0.208008 0.319336 0.978928
-0.185853 0.313477 0.995117
-0.213919 0.319336 0.983398
-0.213775 0.319336 0.983398
-0.213867 0.319383 0.983398
-0.213867 0.319336 0.983462
-0.184683 0.313477 1.00098
-0.272461 0.365265 0.749023
-0.266602 0.362382 0.749023
-0.260742 0.36066 0.749023
-0.254883 0.363686 0.749023
-0.27832 0.359864 0.760742
-0.272461 0.356724 0.760742
-0.266602 0.355606 0.760742
-0.260742 0.357683 0.760742
-0.295898 0.365673 0.754883
-0.28418 0.366155 0.754883
-0.27832 0.363179 0.754883
-0.27832 0.360352 0.75934
-0.272461 0.361567 0.754883
-0.272461 0.360352 0.757043
-0.266602 0.361402 0.754883
-0.266602 0.360352 0.757071
-0.260742 0.360617 0.754883
-0.260742 0.360352 0.755488
-0.254883 0.361711 0.754883
-0.249023 0.365598 0.754883
-0.266602 0.354035 0.772461
-0.260742 0.354149 0.772461
-0.28418 0.359123 0.766602
-0.27832 0.358316 0.766602
-0.272461 0.35713 0.766602
-0.266602 0.355609 0.766602
-0.266602 0.354492 0.770023
-0.260742 0.356787 0.766602
-0.260742 0.354492 0.771636
-0.254883 0.358295 0.766602
-0.301758 0.36443 0.760742
-0.290039 0.365191 0.760742
-0.28011 0.360352 0.760742
-0.28418 0.362386 0.760742
-0.28418 0.360352 0.763102
-0.25572 0.360352 0.760742
-0.254883 0.360648 0.760742
-0.254883 0.360352 0.761649
-0.249023 0.363095 0.760742
-0.266602 0.353644 0.77832
-0.260742 0.352469 0.77832
-0.254883 0.352934 0.77832
-0.28418 0.359785 0.772461
-0.27832 0.356933 0.772461
-0.26759 0.354492 0.772461
-0.272461 0.356374 0.772461
-0.259056 0.354492 0.772461
-0.254883 0.355672 0.772461
-0.254883 0.354492 0.774633
-0.249023 0.357793 0.772461
-0.301758 0.364035 0.766602
-0.301758 0.360352 0.772398
-0.285993 0.360352 0.766602
-0.290039 0.363941 0.766602
-0.24975 0.360352 0.766602
-0.249023 0.360688 0.766602
-0.249023 0.360352 0.767369
-0.243164 0.365294 0.766602
-0.295898 0.354137 0.78418
-0.266602 0.353094 0.78418
-0.260742 0.352032 0.78418
-0.254883 0.352055 0.78418
-0.295898 0.357106 0.77832
-0.295898 0.354492 0.783323
-0.28418 0.35895 0.77832
-0.27832 0.356656 0.77832
-0.270704 0.354492 0.77832
-0.272461 0.35482 0.77832
-0.249673 0.354492 0.77832
-0.249023 0.354813 0.77832
-0.300474 0.360352 0.772461
-0.295898 0.361339 0.772461
-0.295898 0.360352 0.772648
-0.285274 0.360352 0.772461
-0.290039 0.363274 0.772461
-0.245768 0.360352 0.772461
-0.243164 0.363087 0.772461
-0.290039 0.336914 0.824643
-0.254883 0.331055 0.830501
-0.28418 0.354321 0.790039
-0.272461 0.353327 0.790039
-0.266602 0.351781 0.790039
-0.260742 0.351225 0.790039
-0.254883 0.351202 0.790039
-0.249023 0.352237 0.790039
-0.295258 0.354492 0.78418
-0.295898 0.356705 0.78418
-0.290039 0.360299 0.78418
-0.28418 0.357177 0.78418
-0.28418 0.354492 0.78975
-0.27832 0.355498 0.78418
-0.269428 0.354492 0.78418
-0.272461 0.355328 0.78418
-0.272461 0.354492 0.786977
-0.249119 0.354492 0.78418
-0.249023 0.354533 0.78418
-0.249023 0.354492 0.784237
-0.243164 0.357763 0.78418
-0.292692 0.360352 0.77832
-0.295898 0.360352 0.783094
-0.287038 0.360352 0.77832
-0.290039 0.361517 0.77832
-0.290039 0.360352 0.784108
-0.244279 0.360352 0.77832
-0.243164 0.361479 0.77832
-0.243164 0.360352 0.780468
-0.290039 0.347769 0.819336
-0.290039 0.342773 0.824175
-0.288556 0.336914 0.825195
-0.28418 0.336914 0.829109
-0.254883 0.336914 0.827331
-0.249023 0.336914 0.826082
-0.27832 0.35289 0.795898
-0.272461 0.350947 0.795898
-0.266602 0.349989 0.795898
-0.260742 0.349148 0.795898
-0.254883 0.350215 0.795898
-0.249023 0.351614 0.795898
-0.243164 0.354328 0.795898
-0.28418 0.336299 0.831055
-0.256068 0.331055 0.831055
-0.260742 0.331055 0.83331
-0.249427 0.331055 0.831055
-0.249023 0.331109 0.831055
-0.249023 0.331055 0.831122
-0.243164 0.331055 0.835215
-0.237305 0.331055 0.836614
-0.292682 0.354492 0.790039
-0.285126 0.354492 0.790039
-0.290039 0.356098 0.790039
-0.282892 0.354492 0.790039
-0.28418 0.354492 0.791165
-0.276505 0.354492 0.790039
-0.27832 0.355039 0.790039
-0.27832 0.354492 0.791711
-0.244978 0.354492 0.790039
-0.243164 0.356024 0.790039
-0.243164 0.354492 0.795154
-0.296529 0.360352 0.78418
-0.290291 0.360352 0.78418
-0.295898 0.361913 0.78418
-0.295898 0.360352 0.78536
-0.239774 0.360352 0.78418
-0.237305 0.362429 0.78418
-0.290039 0.352538 0.801758
-0.28418 0.353813 0.801758
-0.27832 0.353583 0.801758
-0.272461 0.351622 0.801758
-0.266602 0.349954 0.801758
-0.260742 0.349525 0.801758
-0.254883 0.350222 0.801758
-0.243164 0.353744 0.801758
-0.28915 0.342773 0.825195
-0.260742 0.342773 0.830661
-0.254883 0.342773 0.82731
-0.249023 0.342773 0.828435
-0.243164 0.346421 0.825195
-0.243164 0.342773 0.829352
-0.237305 0.347079 0.825195
-0.237305 0.342773 0.830153
-0.283923 0.336914 0.831055
-0.28418 0.337181 0.831055
-0.260503 0.336914 0.831055
-0.260742 0.338721 0.831055
-0.260742 0.336914 0.831219
-0.244614 0.336914 0.831055
-0.243164 0.340464 0.831055
-0.243164 0.336914 0.833925
-0.237305 0.342155 0.831055
-0.28418 0.333196 0.836914
-0.264284 0.331055 0.836914
-0.266602 0.331055 0.838795
-0.236987 0.331055 0.836914
-0.237305 0.331679 0.836914
-0.295898 0.348662 0.807617
-0.295898 0.348633 0.807688
-0.290039 0.352427 0.807617
-0.28418 0.351992 0.807617
-0.27832 0.351939 0.807617
-0.272461 0.352571 0.807617
-0.266602 0.352242 0.807617
-0.260742 0.352002 0.807617
-0.254883 0.352259 0.807617
-0.249023 0.353878 0.807617
-0.243164 0.353238 0.807617
-0.237729 0.360352 0.790039
-0.237305 0.360902 0.790039
-0.290118 0.354492 0.795898
-0.290039 0.354577 0.795898
-0.290039 0.354492 0.796179
-0.282299 0.354492 0.795898
-0.28418 0.355221 0.795898
-0.28418 0.354492 0.799278
-0.249023 0.354492 0.800833
-0.242881 0.354492 0.795898
-0.288439 0.342773 0.831055
-0.28418 0.342773 0.836257
-0.26121 0.342773 0.831055
-0.235664 0.342773 0.831055
-0.231445 0.34439 0.831055
-0.231445 0.342773 0.833439
-0.225586 0.34846 0.831055
-0.282439 0.336914 0.836914
-0.26527 0.336914 0.836914
-0.266602 0.336914 0.838199
-0.24114 0.336914 0.836914
-0.237305 0.339726 0.836914
-0.231445 0.340743 0.836914
-0.18457 0.365427 0.883789
-0.28418 0.332337 0.842773
-0.26766 0.331055 0.842773
-0.234837 0.331055 0.842773
-0.237305 0.335687 0.842773
-0.18457 0.351715 0.901367
-0.18457 0.348633 0.90381
-0.18457 0.344966 0.907227
-0.18457 0.342773 0.908812
-0.291291 0.348633 0.813477
-0.290039 0.349772 0.813477
-0.290039 0.348633 0.81528
-0.28418 0.350815 0.813477
-0.27832 0.353201 0.813477
-0.272461 0.352858 0.813477
-0.266602 0.352188 0.813477
-0.260742 0.352373 0.813477
-0.254883 0.353389 0.813477
-0.249023 0.352526 0.813477
-0.243164 0.35428 0.813477
-0.18457 0.357709 0.895508
-0.18457 0.354492 0.899724
-0.237646 0.360352 0.795898
-0.237305 0.360644 0.795898
-0.237305 0.360352 0.796505
-0.249735 0.354492 0.801758
-0.24606 0.354492 0.801758
-0.249023 0.355086 0.801758
-0.249023 0.354492 0.804509
-0.241735 0.354492 0.801758
-0.237305 0.35814 0.801758
-0.18457 0.340858 0.913086
-0.290039 0.345502 0.836914
-0.283089 0.342773 0.836914
-0.28418 0.343467 0.836914
-0.28418 0.342773 0.840962
-0.265624 0.342773 0.836914
-0.266602 0.347577 0.836914
-0.266602 0.342773 0.837724
-0.226877 0.342773 0.836914
-0.225586 0.343558 0.836914
-0.225586 0.342773 0.838161
-0.18457 0.361494 0.889648
-0.18457 0.360352 0.891389
-0.178711 0.364539 0.889648
-0.282275 0.336914 0.842773
-0.28418 0.342085 0.842773
-0.269527 0.336914 0.842773
-0.272461 0.336914 0.847382
-0.237976 0.336914 0.842773
-0.237305 0.337599 0.842773
-0.237305 0.336914 0.844116
-0.231445 0.338038 0.842773
-0.231445 0.336914 0.845256
-0.225586 0.340567 0.842773
-0.28418 0.331511 0.848633
-0.28418 0.331055 0.849315
-0.27832 0.331055 0.852694
-0.270318 0.331055 0.848633
-0.272461 0.335428 0.848633
-0.272461 0.331055 0.850646
-0.232406 0.331055 0.848633
-0.231445 0.333943 0.848633
-0.231445 0.331055 0.851879
-0.181226 0.348633 0.907227
-0.178711 0.348633 0.908735
-0.288337 0.348633 0.819336
-0.28418 0.351286 0.819336
-0.243164 0.348633 0.823555
-0.237305 0.348633 0.823918
-0.180686 0.342773 0.913086
-0.178711 0.34438 0.913086
-0.178711 0.342773 0.915083
-0.172852 0.342773 0.918745
-0.183291 0.354492 0.901367
-0.178711 0.358422 0.901367
-0.235451 0.360352 0.801758
-0.18457 0.339353 0.918945
-0.178711 0.340609 0.918945
-0.172852 0.342658 0.918945
-0.239312 0.354492 0.807617
-0.237305 0.355869 0.807617
-0.18457 0.334625 0.930664
-0.18457 0.331055 0.934931
-0.178711 0.335155 0.930664
-0.178711 0.331055 0.936457
-0.172852 0.33635 0.930664
-0.166992 0.336776 0.930664
-0.180231 0.360352 0.895508
-0.178711 0.361266 0.895508
-0.178711 0.360352 0.897241
-0.172852 0.364633 0.895508
-0.166992 0.365664 0.895508
-0.284512 0.342773 0.842773
-0.290039 0.346612 0.842773
-0.28418 0.342773 0.847247
-0.271338 0.342773 0.842773
-0.272461 0.34507 0.842773
-0.272461 0.342773 0.844318
-0.223241 0.342773 0.842773
-0.219727 0.345974 0.842773
-0.219727 0.342773 0.848419
-0.282761 0.336914 0.848633
-0.28418 0.336914 0.852877
-0.273278 0.336914 0.848633
-0.22731 0.336914 0.848633
-0.225586 0.33766 0.848633
-0.225586 0.336914 0.85078
-0.219727 0.342652 0.848633
-0.174907 0.348633 0.913086
-0.172852 0.351288 0.913086
-0.172852 0.348633 0.915353
-0.166992 0.353063 0.913086
-0.166992 0.348633 0.918769
-0.172653 0.342773 0.918945
-0.166992 0.348466 0.918945
-0.28418 0.334734 0.854492
-0.27832 0.333531 0.854492
-0.229931 0.331055 0.854492
-0.225586 0.335491 0.854492
-0.179154 0.354492 0.907227
-0.178711 0.354875 0.907227
-0.178711 0.354492 0.907553
-0.172852 0.357425 0.907227
-0.172852 0.354492 0.909749
-0.166992 0.358453 0.907227
-0.166992 0.354492 0.911311
-0.289647 0.348633 0.825195
-0.260742 0.348633 0.830146
-0.254883 0.349624 0.825195
-0.254883 0.348633 0.825845
-0.247671 0.348633 0.825195
-0.249023 0.349425 0.825195
-0.249023 0.348633 0.825724
-0.234856 0.348633 0.825195
-0.231445 0.353059 0.825195
-0.231445 0.348633 0.826899
-0.225586 0.348633 0.830888
-0.18457 0.33722 0.924805
-0.18457 0.336914 0.925581
-0.178711 0.338058 0.924805
-0.178711 0.336914 0.927611
-0.172852 0.339866 0.924805
-0.172852 0.336914 0.929799
-0.166992 0.336914 0.930068
-0.233901 0.360352 0.807617
-0.231445 0.366168 0.807617
-0.27832 0.354492 0.814941
-0.272461 0.354492 0.815207
-0.266602 0.354492 0.816356
-0.260742 0.354492 0.816422
-0.254883 0.354492 0.815634
-0.249023 0.354492 0.818362
-0.242902 0.354492 0.813477
-0.243164 0.354492 0.814425
-0.237305 0.357951 0.813477
-0.17546 0.360352 0.901367
-0.172852 0.361902 0.901367
-0.172852 0.360352 0.904061
-0.166992 0.362864 0.901367
-0.166992 0.360352 0.905283
-0.161133 0.364069 0.901367
-0.178658 0.331055 0.936523
-0.172852 0.334186 0.936523
-0.166992 0.336319 0.936523
-0.283338 0.342773 0.848633
-0.276704 0.342773 0.848633
-0.27832 0.346561 0.848633
-0.27832 0.342773 0.852458
-0.219605 0.342773 0.848633
-0.213867 0.34823 0.848633
-0.166865 0.348633 0.918945
-0.161133 0.352865 0.918945
-0.284772 0.336914 0.854492
-0.28418 0.338062 0.854492
-0.276053 0.336914 0.854492
-0.27832 0.342249 0.854492
-0.223742 0.336914 0.854492
-0.219727 0.339772 0.854492
-0.219727 0.336914 0.859144
-0.16791 0.342773 0.924805
-0.166992 0.343632 0.924805
-0.166992 0.342773 0.925746
-0.166775 0.336914 0.930664
-0.27832 0.335045 0.860352
-0.227557 0.331055 0.860352
-0.225586 0.332827 0.860352
-0.225586 0.331055 0.865392
-0.219727 0.336264 0.860352
-0.164552 0.354492 0.913086
-0.161133 0.356434 0.913086
-0.161133 0.354492 0.915768
-0.155273 0.359934 0.913086
-0.28418 0.363211 0.813477
-0.27832 0.364471 0.813477
-0.233654 0.360352 0.813477
-0.231445 0.363126 0.813477
-0.231445 0.360352 0.818958
-0.289219 0.348633 0.831055
-0.290039 0.348633 0.832269
-0.261371 0.348633 0.831055
-0.266602 0.348633 0.836663
-0.225403 0.348633 0.831055
-0.281886 0.354492 0.819336
-0.28418 0.354492 0.822041
-0.27832 0.357454 0.819336
-0.272461 0.357847 0.819336
-0.266602 0.357362 0.819336
-0.260742 0.356062 0.819336
-0.254883 0.355947 0.819336
-0.254883 0.354492 0.822868
-0.249023 0.354775 0.819336
-0.249023 0.354492 0.820753
-0.243164 0.355205 0.819336
-0.243164 0.354492 0.821262
-0.237305 0.356922 0.819336
-0.237305 0.354492 0.821931
-0.231445 0.360057 0.819336
-0.231445 0.354492 0.824567
-0.162584 0.360352 0.907227
-0.161133 0.360829 0.907227
-0.161133 0.360352 0.907894
-0.155273 0.360352 0.912534
-0.177093 0.331055 0.942383
-0.172852 0.333195 0.942383
-0.166992 0.336243 0.942383
-0.163417 0.348633 0.924805
-0.161133 0.350775 0.924805
-0.161133 0.348633 0.928733
-0.216626 0.342773 0.854492
-0.213867 0.345902 0.854492
-0.213867 0.342773 0.860159
-0.163157 0.342773 0.930664
-0.161133 0.346297 0.930664
-0.161133 0.342773 0.93352
-0.286057 0.336914 0.860352
-0.28418 0.341796 0.860352
-0.28418 0.336914 0.86288
-0.276955 0.336914 0.860352
-0.27832 0.340388 0.860352
-0.27832 0.336914 0.861672
-0.21901 0.336914 0.860352
-0.213867 0.342675 0.860352
-0.166176 0.336914 0.936523
-0.161133 0.341619 0.936523
-0.15706 0.354492 0.918945
-0.155273 0.355438 0.918945
-0.225177 0.331055 0.866211
-0.219727 0.334616 0.866211
-0.219727 0.331055 0.870131
-0.272461 0.365358 0.819336
-0.231208 0.360352 0.819336
-0.292436 0.348633 0.836914
-0.267151 0.348633 0.836914
-0.272461 0.348633 0.839729
-0.22008 0.348633 0.836914
-0.219727 0.35138 0.836914
-0.219727 0.348633 0.837398
-0.287644 0.354492 0.825195
-0.28418 0.35692 0.825195
-0.27832 0.358005 0.825195
-0.272461 0.35726 0.825195
-0.266602 0.356469 0.825195
-0.257905 0.354492 0.825195
-0.260742 0.355562 0.825195
-0.260742 0.354492 0.82878
-0.230838 0.354492 0.825195
-0.225586 0.354492 0.830846
-0.154969 0.360352 0.913086
-0.173769 0.331055 0.948242
-0.172852 0.331669 0.948242
-0.172852 0.331055 0.949627
-0.166992 0.334906 0.948242
-0.166992 0.331055 0.952332
-0.157835 0.348633 0.930664
-0.155273 0.350119 0.930664
-0.155273 0.348633 0.932441
-0.213735 0.342773 0.860352
0.102539 0.363583 0.78418
0.108398 0.363168 0.78418
0.108398 0.360352 0.787893
0.114258 0.364314 0.78418
0.120117 0.364947 0.78418
-0.165835 0.336914 0.942383
-0.161133 0.339474 0.942383
-0.155273 0.342202 0.942383
-0.158985 0.342773 0.936523
-0.155273 0.346322 0.936523
-0.155273 0.342773 0.941387
0.108398 0.359342 0.790039
-0.21668 0.336914 0.866211
-0.213867 0.33897 0.866211
-0.213867 0.336914 0.871275
-0.155395 0.354492 0.924805
-0.155273 0.354552 0.924805
-0.155273 0.354492 0.92499
-0.149414 0.3584 0.924805
-0.218229 0.331055 0.87207
-0.213867 0.336557 0.87207
-0.290039 0.365921 0.825195
-0.28418 0.36434 0.825195
-0.28418 0.360352 0.828421
-0.27832 0.360352 0.827646
-0.272461 0.360352 0.828667
-0.266602 0.360352 0.829501
-0.260742 0.360352 0.830058
-0.228671 0.360352 0.825195
-0.225586 0.363671 0.825195
-0.225586 0.360352 0.82868
-0.291706 0.348633 0.842773
-0.295898 0.354232 0.842773
-0.290039 0.348633 0.845448
-0.28418 0.348633 0.848531
-0.276374 0.348633 0.842773
-0.27832 0.348633 0.846114
-0.216704 0.348633 0.842773
-0.213867 0.348633 0.847787
-0.151237 0.360352 0.918945
-0.149414 0.360352 0.921688
-0.287579 0.354492 0.831055
-0.290039 0.354492 0.835093
-0.262697 0.354492 0.831055
-0.266602 0.354492 0.833648
-0.260742 0.356887 0.831055
-0.225387 0.354492 0.831055
-0.219727 0.354492 0.836577
-0.163034 0.331055 0.954102
-0.161133 0.332722 0.954102
-0.161133 0.331055 0.957221
-0.155273 0.33613 0.954102
-0.149613 0.348633 0.936523
-0.149414 0.348796 0.936523
-0.149414 0.348633 0.936713
0.0966797 0.358935 0.795898
0.102539 0.357977 0.795898
0.108398 0.35699 0.795898
0.114258 0.357141 0.795898
0.120117 0.357931 0.795898
0.125977 0.359087 0.795898
-0.163923 0.336914 0.948242
-0.161133 0.338088 0.948242
-0.161133 0.336914 0.951028
-0.155273 0.339609 0.948242
-0.155273 0.336914 0.9528
-0.149414 0.341828 0.948242
0.0966797 0.364018 0.790039
0.0966797 0.360352 0.794104
0.104263 0.360352 0.790039
0.102539 0.360906 0.790039
0.102539 0.360352 0.791285
0.114125 0.360352 0.790039
0.114258 0.360389 0.790039
0.114258 0.360352 0.790082
0.120117 0.361268 0.790039
0.120117 0.360352 0.791492
0.125977 0.362099 0.790039
0.125977 0.360352 0.792614
-0.260742 0.347929 0.866211
-0.254883 0.342773 0.871242
-0.249023 0.342773 0.870003
-0.243164 0.342773 0.869432
-0.209727 0.342773 0.866211
-0.208008 0.345064 0.866211
-0.208008 0.342773 0.870271
-0.153047 0.342773 0.942383
-0.149414 0.344696 0.942383
-0.149414 0.342773 0.945402
-0.151761 0.354492 0.930664
-0.149414 0.356092 0.930664
-0.149414 0.354492 0.933072
-0.254883 0.342056 0.87207
-0.249023 0.341378 0.87207
-0.249023 0.336914 0.877568
-0.243164 0.339361 0.87207
-0.243164 0.336914 0.876363
-0.237305 0.336914 0.876579
-0.213539 0.336914 0.87207
-0.208008 0.342105 0.87207
-0.249023 0.336298 0.87793
-0.243164 0.336217 0.87793
-0.237305 0.336074 0.87793
-0.215774 0.331055 0.87793
-0.213867 0.335693 0.87793
-0.213867 0.331055 0.880885
0.108398 0.342498 0.819336
0.0966797 0.352762 0.807617
0.0966797 0.348633 0.813369
0.102539 0.352236 0.807617
0.102539 0.348633 0.812045
0.108398 0.352409 0.807617
0.108398 0.348633 0.812008
-0.290039 0.351686 0.848633
-0.28418 0.348989 0.848633
-0.213542 0.348633 0.848633
0.0966797 0.348546 0.813477
0.102539 0.347448 0.813477
0.108398 0.347355 0.813477
0.108398 0.342773 0.819006
-0.147033 0.360352 0.924805
-0.143555 0.36554 0.924805
-0.295898 0.366015 0.831055
-0.286593 0.360352 0.831055
-0.290039 0.363999 0.831055
-0.27832 0.365944 0.831055
-0.272461 0.363169 0.831055
-0.266602 0.361613 0.831055
-0.266602 0.360352 0.836634
-0.25945 0.360352 0.831055
-0.260742 0.361233 0.831055
-0.260742 0.360352 0.833194
-0.223963 0.360352 0.831055
-0.219727 0.360352 0.835346
-0.160497 0.331055 0.959961
-0.155273 0.334666 0.959961
-0.149414 0.336557 0.959961
-0.291316 0.354492 0.836914
-0.295898 0.354492 0.842509
-0.290039 0.357823 0.836914
-0.271288 0.354492 0.836914
-0.272461 0.354492 0.83923
-0.219403 0.354492 0.836914
0.0908203 0.359032 0.801758
0.0966797 0.356359 0.801758
0.0966797 0.354492 0.805296
0.102539 0.35545 0.801758
0.102539 0.354492 0.804009
0.108398 0.355347 0.801758
0.108398 0.354492 0.803876
0.114258 0.355513 0.801758
0.120117 0.355919 0.801758
0.125977 0.35767 0.801758
0.131836 0.360175 0.801758
0.102539 0.336107 0.831055
0.108398 0.33591 0.831055
0.114258 0.33655 0.831055
-0.148502 0.348633 0.942383
-0.143555 0.353891 0.942383
-0.14874 0.342773 0.948242
0.0947987 0.360352 0.795898
0.0908203 0.364477 0.795898
0.0908203 0.360352 0.800189
0.128917 0.360352 0.795898
0.131836 0.362774 0.795898
0.131836 0.360352 0.800968
-0.153648 0.336914 0.954102
-0.149414 0.339931 0.954102
-0.149414 0.336914 0.958501
-0.146428 0.354492 0.936523
-0.143555 0.357948 0.936523
-0.143555 0.354492 0.940298
-0.137695 0.358111 0.936523
-0.131836 0.358917 0.936523
-0.125977 0.36012 0.936523
-0.266602 0.342773 0.876255
-0.256406 0.342773 0.87207
-0.260742 0.342773 0.87625
-0.237605 0.342773 0.87207
-0.243164 0.348084 0.87207
-0.237305 0.342773 0.873151
-0.207351 0.342773 0.87207
0.0908203 0.342508 0.825195
0.0966797 0.339521 0.825195
0.102539 0.339365 0.825195
0.102539 0.336914 0.829645
0.108398 0.338738 0.825195
0.108398 0.336914 0.828904
0.114258 0.3402 0.825195
0.114258 0.336914 0.830305
-0.266602 0.341964 0.87793
-0.260742 0.341828 0.87793
-0.249371 0.336914 0.87793
-0.254883 0.341333 0.87793
-0.236132 0.336914 0.87793
-0.212924 0.336914 0.87793
-0.208008 0.339627 0.87793
-0.249023 0.334495 0.883789
-0.243164 0.333909 0.883789
-0.237305 0.336251 0.883789
-0.211321 0.331055 0.883789
-0.208008 0.331055 0.887935
-0.295898 0.352956 0.854492
-0.290039 0.353994 0.854492
-0.211856 0.348633 0.854492
-0.208008 0.354181 0.854492
-0.143972 0.360352 0.930664
-0.143555 0.360822 0.930664
-0.143555 0.360352 0.931692
-0.137695 0.362585 0.930664
-0.137695 0.360352 0.933563
-0.131836 0.363235 0.930664
-0.131836 0.360352 0.933892
-0.125977 0.360352 0.935822
0.0849609 0.354192 0.813477
0.0962136 0.348633 0.813477
0.0908203 0.349619 0.813477
0.0908203 0.348633 0.814947
0.110796 0.348633 0.813477
0.114258 0.350585 0.813477
0.114258 0.348633 0.815746
0.120117 0.351581 0.813477
0.120117 0.348633 0.816705
0.125977 0.354341 0.813477
0.0908203 0.345892 0.819336
0.0908203 0.342773 0.824704
0.0966797 0.344146 0.819336
0.0966797 0.342773 0.821126
0.105575 0.342773 0.819336
0.102539 0.343071 0.819336
0.102539 0.342773 0.81971
0.109076 0.342773 0.819336
0.114258 0.345218 0.819336
0.114258 0.342773 0.821856
0.120117 0.346635 0.819336
-0.159982 0.331055 0.96582
-0.155273 0.333876 0.96582
-0.149414 0.335524 0.96582
-0.295898 0.354945 0.842773
-0.295898 0.354492 0.843052
-0.274694 0.354492 0.842773
-0.27832 0.354492 0.846067
-0.213902 0.354492 0.842773
-0.213867 0.354791 0.842773
-0.213867 0.354492 0.842833
0.0849609 0.358463 0.807617
0.0849609 0.354492 0.813061
0.0911433 0.354492 0.807617
0.0908203 0.354599 0.807617
0.0908203 0.354492 0.807748
0.111611 0.354492 0.807617
0.114258 0.355299 0.807617
0.114258 0.354492 0.809492
0.120117 0.3556 0.807617
0.120117 0.354492 0.810389
0.125977 0.356989 0.807617
0.125977 0.354492 0.813315
0.131836 0.359427 0.807617
-0.288962 0.360352 0.836914
-0.290039 0.363618 0.836914
-0.290039 0.360352 0.838201
-0.28418 0.365252 0.836914
-0.27832 0.36382 0.836914
-0.266882 0.360352 0.836914
-0.272461 0.362492 0.836914
-0.272461 0.360352 0.839551
-0.217925 0.360352 0.836914
-0.213867 0.360352 0.841775
-0.146847 0.348633 0.948242
-0.143555 0.353443 0.948242
0.0966797 0.334114 0.836914
0.102539 0.332853 0.836914
0.102539 0.331055 0.840949
0.108398 0.332782 0.836914
0.108398 0.331055 0.840683
0.114258 0.333903 0.836914
0.114258 0.331055 0.842179
0.120117 0.335047 0.836914
-0.149123 0.336914 0.959961
-0.147348 0.342773 0.954102
-0.139188 0.354492 0.942383
-0.137695 0.35487 0.942383
-0.131836 0.357213 0.942383
-0.125977 0.358038 0.942383
0.0892788 0.360352 0.801758
0.0849609 0.364227 0.801758
0.0849609 0.360352 0.805261
0.132159 0.360352 0.801758
0.137695 0.365067 0.801758
-0.266602 0.343535 0.87793
-0.260742 0.343918 0.87793
-0.260742 0.342773 0.883314
-0.254883 0.347972 0.87793
-0.243164 0.347116 0.87793
-0.23615 0.342773 0.87793
-0.237305 0.34591 0.87793
-0.205021 0.342773 0.87793
