ply
format ascii 1.0
comment author Lingfeng Ai
element vertex 1743
property float x
property float y
property float z
end_header
0.524414 0.0701566 0.749023
0.524414 0.0673828 0.754164
0.530273 0.0681841 0.749023
0.536133 0.0716153 0.749023
0.541992 0.0697899 0.749023
0.617368 0.0615234 0.661133
0.621706 0.0498047 0.666992
0.618164 0.0545576 0.666992
0.229162 0.0615234 0.725586
0.231445 0.0629928 0.725586
0.231445 0.0615234 0.728343
0.237305 0.0615234 0.729314
0.249023 0.0626844 0.725586
0.249023 0.0615234 0.726089
0.26463 0.0615234 0.725586
0.330834 0.0615234 0.725586
0.331055 0.0616373 0.725586
0.46582 0.0791016 0.751369
0.47168 0.0791016 0.752372
0.477539 0.0791016 0.751313
0.483398 0.0791016 0.754041
0.489258 0.0791016 0.750599
0.495117 0.0791016 0.752162
0.506836 0.0791016 0.752742
0.517605 0.0791016 0.749023
0.512695 0.0791016 0.750504
0.518555 0.0812331 0.749023
0.527066 0.0791016 0.749023
0.524414 0.0791016 0.752008
0.533837 0.0791016 0.749023
0.530273 0.0808349 0.749023
0.530273 0.0791016 0.753693
0.538634 0.0791016 0.749023
0.54439 0.0791016 0.749023
0.541992 0.0791016 0.750226
0.461172 0.0556641 0.749023
0.459961 0.0556641 0.750068
0.524414 0.0605217 0.749023
0.53064 0.0556641 0.749023
0.536133 0.0556641 0.753881
0.54925 0.0556641 0.749023
0.547852 0.0556641 0.751566
0.61761 0.0556641 0.666992
0.618164 0.0556641 0.668543
0.624023 0.0556641 0.670868
0.249871 0.0673828 0.725586
0.263758 0.0673828 0.725586
0.266602 0.0709994 0.725586
0.336261 0.0673828 0.725586
0.331055 0.0673828 0.730311
0.336914 0.0680345 0.725586
0.463755 0.0615234 0.749023
0.506836 0.0661601 0.749023
0.512695 0.0670601 0.749023
0.522392 0.0615234 0.749023
0.525387 0.0615234 0.749023
0.524414 0.0615234 0.749703
0.532783 0.0615234 0.749023
0.536133 0.0660288 0.749023
0.536133 0.0615234 0.752137
0.541992 0.0670186 0.749023
0.548206 0.0615234 0.749023
0.547852 0.0633146 0.749023
0.547852 0.0615234 0.750061
0.265279 0.0791016 0.725586
0.339579 0.0791016 0.725586
0.336914 0.0791016 0.72852
0.448242 0.0498047 0.759353
0.454159 0.0498047 0.754883
0.454102 0.0498047 0.755
0.539966 0.0498047 0.754883
0.547242 0.0498047 0.754883
0.541992 0.0498047 0.756104
0.617954 0.0791016 0.655273
0.618164 0.0804279 0.655273
0.237074 0.0498047 0.731445
0.237305 0.0502264 0.731445
0.237305 0.0498047 0.731653
0.243164 0.0498047 0.735365
0.249023 0.0498047 0.736541
0.254883 0.0524873 0.731445
0.254883 0.0498047 0.73386
0.263947 0.0498047 0.731445
0.260742 0.0498047 0.73517
0.324473 0.0498047 0.731445
0.325195 0.0498047 0.732065
0.61764 0.0673828 0.661133
0.260742 0.0761031 0.731445
0.462908 0.0732422 0.754883
0.459961 0.0732422 0.759569
0.500977 0.0780001 0.754883
0.524414 0.0741583 0.754883
0.23946 0.0556641 0.731445
0.243164 0.0556641 0.737073
0.253175 0.0556641 0.731445
0.249023 0.0586988 0.731445
0.249023 0.0556641 0.735496
0.257534 0.0556641 0.731445
0.254883 0.0574827 0.731445
0.262007 0.0556641 0.731445
0.260742 0.0556641 0.732704
0.324405 0.0556641 0.731445
0.325195 0.0564126 0.731445
0.325195 0.0556641 0.732116
0.617419 0.0732422 0.661133
0.618164 0.0732422 0.662285
0.617266 0.0615234 0.666992
0.618164 0.0615234 0.668358
0.620772 0.0498047 0.672852
0.624023 0.0537572 0.672852
0.624023 0.0498047 0.678115
0.24123 0.0615234 0.731445
0.245949 0.0615234 0.731445
0.243164 0.0615234 0.735319
0.251979 0.0615234 0.731445
0.254883 0.0615234 0.732776
0.262935 0.0615234 0.731445
0.260742 0.0615234 0.73605
0.330409 0.0615234 0.731445
0.460409 0.0673828 0.754883
0.459961 0.0673828 0.755653
0.518219 0.0673828 0.754883
0.522498 0.0673828 0.754883
0.518555 0.0679823 0.754883
0.518555 0.0673828 0.7552
0.625294 0.0556641 0.672852
0.624023 0.0580546 0.672852
0.463395 0.0791016 0.754883
0.46582 0.0838892 0.754883
0.47168 0.0822091 0.754883
0.477539 0.0834359 0.754883
0.483398 0.0847285 0.754883
0.499483 0.0791016 0.754883
0.495117 0.0824196 0.754883
0.504159 0.0791016 0.754883
0.500977 0.0791016 0.755618
0.522871 0.0791016 0.754883
0.528852 0.0791016 0.754883
0.524414 0.0791016 0.756299
0.456714 0.0556641 0.754883
0.454102 0.0556641 0.757695
0.459961 0.0603988 0.754883
0.538696 0.0556641 0.754883
0.545321 0.0556641 0.754883
0.541992 0.0556641 0.756138
0.260742 0.0746933 0.737305
0.252376 0.0673828 0.731445
0.254883 0.0673828 0.73297
0.261054 0.0673828 0.731445
0.260742 0.0677958 0.731445
0.260742 0.0673828 0.731629
0.330695 0.0673828 0.731445
0.331055 0.0679971 0.731445
0.26349 0.0791016 0.731445
0.334154 0.0791016 0.731445
0.331055 0.0791016 0.736528
0.336914 0.0822359 0.731445
0.342773 0.0806531 0.731445
0.61759 0.0791016 0.661133
0.618164 0.0791016 0.662189
0.617087 0.0673828 0.666992
0.618164 0.0687277 0.666992
0.618164 0.0673828 0.668688
0.330912 0.0556641 0.737305
0.446866 0.0498047 0.760742
0.448242 0.052603 0.760742
0.530273 0.0498047 0.764957
0.459327 0.0732422 0.760742
0.454102 0.0732422 0.764063
0.459961 0.0747577 0.760742
0.460961 0.0615234 0.754883
0.459961 0.0615234 0.755993
0.518555 0.0669193 0.754883
0.540839 0.0615234 0.754883
0.544802 0.0615234 0.754883
0.541992 0.0626156 0.754883
0.541992 0.0615234 0.75578
0.621183 0.0732422 0.666992
0.624023 0.0732422 0.67144
0.621228 0.0615234 0.672852
0.624023 0.0615234 0.677701
0.330827 0.0615234 0.737305
0.624403 0.0498047 0.678711
0.456771 0.0673828 0.760742
0.454102 0.0673828 0.76235
0.627564 0.0556641 0.678711
0.624023 0.0556641 0.681586
0.330923 0.0673828 0.737305
0.449741 0.0556641 0.760742
0.448242 0.0556641 0.764833
0.454102 0.0588115 0.760742
0.461543 0.0791016 0.760742
0.459961 0.0791016 0.764843
0.477539 0.0848666 0.760742
0.264847 0.0791016 0.737305
0.266602 0.0821058 0.737305
0.330892 0.0791016 0.737305
0.331055 0.0792828 0.737305
0.342773 0.0798213 0.737305
0.621006 0.0791016 0.666992
0.624023 0.0791016 0.671539
0.620646 0.0673828 0.672852
0.624023 0.0718894 0.672852
0.624023 0.0673828 0.677833
0.456593 0.0615234 0.760742
0.454102 0.0615234 0.762735
0.451534 0.0732422 0.766602
0.454102 0.0761989 0.766602
0.512695 0.0732422 0.769464
0.518555 0.0732422 0.770219
0.524414 0.0732422 0.771272
0.530273 0.0732422 0.771501
0.443126 0.0498047 0.766602
0.442383 0.0498047 0.768205
0.529622 0.0498047 0.766602
0.531383 0.0498047 0.766602
0.530273 0.0510485 0.766602
0.624982 0.0732422 0.672852
0.624023 0.0732422 0.67814
0.624542 0.0615234 0.678711
0.624023 0.0615234 0.680837
0.627122 0.0498047 0.68457
0.624023 0.0539471 0.68457
0.450364 0.0673828 0.766602
0.512695 0.0673828 0.768615
0.518555 0.0673828 0.770529
0.524414 0.0673828 0.770596
0.530273 0.0673828 0.771699
0.266602 0.0835928 0.743164
0.622786 0.0556641 0.68457
0.624023 0.0556641 0.688802
0.266602 0.077428 0.754883
0.624835 0.0791016 0.672852
0.624023 0.0791016 0.677332
0.447841 0.0556641 0.766602
0.448242 0.0567951 0.766602
0.524414 0.0556641 0.770368
0.530273 0.0556641 0.771849
0.458989 0.0791016 0.766602
0.454102 0.0791016 0.770638
0.459961 0.0812359 0.766602
0.512695 0.0791016 0.771005
0.530273 0.0791016 0.772058
0.44983 0.0615234 0.766602
0.518555 0.0615234 0.769165
0.524414 0.0615234 0.77028
0.530273 0.0615234 0.772132
0.623173 0.0732422 0.678711
0.442383 0.0516167 0.772461
0.624563 0.0673828 0.678711
0.624023 0.0723315 0.678711
0.624023 0.0673828 0.680634
0.450224 0.0732422 0.772461
0.448242 0.0732422 0.777037
0.508265 0.0732422 0.772461
0.518555 0.077498 0.772461
0.524414 0.0748566 0.772461
0.531437 0.0732422 0.772461
0.530273 0.0732422 0.775912
0.622754 0.0615234 0.68457
0.624023 0.0615234 0.687986
0.612305 0.0498047 0.695456
0.618164 0.0498047 0.69229
0.624809 0.0498047 0.69043
0.624023 0.0498047 0.691686
0.449828 0.0673828 0.772461
0.448242 0.0673828 0.775616
0.511056 0.0673828 0.772461
0.531054 0.0673828 0.772461
0.530273 0.0673828 0.773247
0.266602 0.0791377 0.749023
0.266602 0.0791016 0.749062
0.606445 0.0556641 0.695909
0.612305 0.0556641 0.6947
0.618164 0.0556641 0.692678
0.624561 0.0556641 0.69043
0.624023 0.0556641 0.691626
0.266602 0.0775459 0.760742
0.445952 0.0556641 0.772461
0.448242 0.061448 0.772461
0.531544 0.0556641 0.772461
0.530273 0.0556641 0.77713
0.62265 0.0791016 0.678711
0.624023 0.0815023 0.678711
0.448263 0.0615234 0.772461
0.448242 0.0615234 0.772511
0.531247 0.0615234 0.772461
0.530273 0.0615234 0.775854
0.621994 0.0732422 0.68457
0.624023 0.0732422 0.687939
0.452608 0.0791016 0.772461
0.512148 0.0791016 0.772461
0.506836 0.0791016 0.775226
0.514351 0.0791016 0.772461
0.512695 0.0848107 0.772461
0.518555 0.0791016 0.774414
0.529542 0.0791016 0.772461
0.524414 0.0791016 0.776689
0.53066 0.0791016 0.772461
0.530273 0.0796292 0.772461
0.530273 0.0791016 0.774158
0.622452 0.0673828 0.68457
0.624023 0.0673828 0.687414
0.447778 0.0732422 0.77832
0.448242 0.0756527 0.77832
0.52561 0.0732422 0.77832
0.524414 0.0732422 0.779503
0.612305 0.0615234 0.693621
0.618164 0.0615234 0.69399
0.625159 0.0615234 0.69043
0.624023 0.0615234 0.693485
0.445057 0.0673828 0.77832
0.525198 0.0673828 0.77832
0.524414 0.0673828 0.78099
0.594727 0.0498047 0.700967
0.600586 0.0498047 0.697792
0.609904 0.0498047 0.696289
0.606445 0.0540596 0.696289
0.606445 0.0498047 0.696973
0.268052 0.0791016 0.754883
0.605945 0.0556641 0.696289
0.600586 0.0556641 0.700917
0.606445 0.0573158 0.696289
0.443281 0.0556641 0.77832
0.443607 0.0615234 0.77832
0.529561 0.0615234 0.77832
0.621843 0.0791016 0.68457
0.618164 0.0843786 0.68457
0.624023 0.0791016 0.688604
0.612305 0.0673828 0.692802
0.618164 0.0673828 0.694106
0.625875 0.0673828 0.69043
0.624023 0.0673828 0.695277
0.606445 0.0732422 0.6955
0.612305 0.0732422 0.693803
0.618164 0.0732422 0.693191
0.625618 0.0732422 0.69043
0.624023 0.0732422 0.693057
0.449039 0.0791016 0.77832
0.448242 0.0791016 0.779704
0.504851 0.0791016 0.77832
0.506836 0.0829799 0.77832
0.527488 0.0791016 0.77832
0.395508 0.0498047 0.792176
0.401367 0.0498047 0.790046
0.407227 0.0504842 0.790039
0.407227 0.0498047 0.790135
0.413086 0.0498047 0.790136
0.418945 0.0498047 0.790222
0.424805 0.0498047 0.793032
0.430664 0.0498047 0.791334
0.436523 0.0498047 0.795054
0.600586 0.0615234 0.699848
0.607716 0.0615234 0.696289
0.606445 0.0615234 0.697257
0.413086 0.0732422 0.789336
0.418945 0.0732422 0.789433
0.445755 0.0732422 0.78418
0.522534 0.0732422 0.78418
0.524414 0.0777278 0.78418
0.524414 0.0732422 0.789455
0.407227 0.0673828 0.789174
0.413086 0.0673828 0.788945
0.418945 0.0673828 0.789954
0.424805 0.0673828 0.789967
0.445306 0.0673828 0.78418
0.590532 0.0498047 0.702148
0.588867 0.0498047 0.702695
0.594727 0.0547359 0.702148
0.268154 0.0791016 0.760742
0.407227 0.0556641 0.789627
0.407227 0.0615234 0.789746
0.413086 0.0615234 0.789637
0.418945 0.0615234 0.789831
0.588867 0.0556641 0.707075
0.595783 0.0556641 0.702148
0.594727 0.0556641 0.702408
0.612305 0.0791016 0.694822
0.618164 0.0791016 0.6935
0.625029 0.0791016 0.69043
0.624023 0.080421 0.69043
0.624023 0.0791016 0.692317
0.600586 0.0673828 0.701973
0.607028 0.0673828 0.696289
0.606445 0.0691402 0.696289
0.606445 0.0673828 0.696733
0.602812 0.0732422 0.696289
0.600586 0.0732422 0.697996
0.606445 0.0780524 0.696289
0.413086 0.0791016 0.788859
0.418945 0.0791016 0.78912
0.424805 0.0791016 0.789684
0.44654 0.0791016 0.78418
0.518555 0.0791016 0.788221
0.524854 0.0791016 0.78418
0.524414 0.0791016 0.78485
0.598281 0.0615234 0.702148
0.594727 0.0615234 0.706398
0.392191 0.0498047 0.795898
0.389648 0.0498047 0.798739
0.436523 0.05206 0.795898
0.404803 0.0673828 0.790039
0.401367 0.0673828 0.794611
0.407227 0.0696133 0.790039
0.425473 0.0673828 0.790039
0.424805 0.067589 0.790039
0.430664 0.0673828 0.79087
0.436523 0.0673828 0.795576
0.401367 0.0732422 0.794417
0.411137 0.0732422 0.790039
0.407227 0.0732422 0.791902
0.420325 0.0732422 0.790039
0.424805 0.0778964 0.790039
0.424805 0.0732422 0.792006
0.430664 0.0732422 0.792641
0.436523 0.0732422 0.79326
0.444834 0.0732422 0.790039
0.524544 0.0732422 0.790039
0.524414 0.0735035 0.790039
0.583586 0.0498047 0.708008
0.583008 0.0498047 0.710761
0.395508 0.0556641 0.793326
0.405932 0.0556641 0.790039
0.401367 0.0556641 0.791665
0.410815 0.0556641 0.790039
0.413086 0.0588028 0.790039
0.413086 0.0556641 0.790427
0.418945 0.061018 0.790039
0.418945 0.0556641 0.791843
0.424805 0.0556641 0.792513
0.430664 0.0556641 0.79317
0.395508 0.0615234 0.79499
0.405978 0.0615234 0.790039
0.401367 0.0615234 0.791742
0.41942 0.0615234 0.790039
0.424805 0.06721 0.790039
0.424805 0.0615234 0.792398
0.430664 0.0615234 0.795366
0.587302 0.0556641 0.708008
0.583008 0.0556641 0.71286
0.588867 0.0599447 0.708008
0.600511 0.0673828 0.702148
0.607232 0.0791016 0.696289
0.606445 0.0812556 0.696289
0.606445 0.0791016 0.696558
0.386928 0.0498047 0.801758
0.383789 0.0498047 0.805226
0.590202 0.0615234 0.708008
0.588867 0.0615234 0.708664
0.594727 0.0669663 0.708008
0.599108 0.0732422 0.702148
0.594727 0.0732422 0.706756
0.600586 0.0773815 0.702148
0.400386 0.0673828 0.795898
0.395508 0.0673828 0.800262
0.442383 0.0705433 0.795898
0.401367 0.0791016 0.794571
0.409414 0.0791016 0.790039
0.407227 0.0791016 0.791282
0.425738 0.0791016 0.790039
0.424805 0.0805976 0.790039
0.430664 0.0791016 0.792467
0.436523 0.0791016 0.794811
0.446849 0.0791016 0.790039
0.518555 0.082214 0.790039
0.400059 0.0732422 0.795898
0.395508 0.0732422 0.801029
0.439979 0.0732422 0.795898
0.443557 0.0732422 0.795898
0.442383 0.0732422 0.797005
0.582318 0.0498047 0.713867
0.392831 0.0556641 0.795898
0.389648 0.0556641 0.80128
0.434133 0.0556641 0.795898
0.439666 0.0556641 0.795898
0.436523 0.0556641 0.797611
0.394699 0.0615234 0.795898
0.395508 0.0630022 0.795898
0.431584 0.0615234 0.795898
0.436523 0.0667911 0.795898
0.436523 0.0615234 0.797704
0.582537 0.0556641 0.713867
0.583008 0.0571631 0.713867
0.588867 0.0673828 0.711238
0.594894 0.0673828 0.708008
0.594727 0.0678316 0.708008
0.594727 0.0673828 0.708104
0.381609 0.0498047 0.807617
0.383789 0.0553397 0.807617
0.585125 0.0615234 0.713867
0.583008 0.0615234 0.716774
0.60129 0.0791016 0.702148
0.600586 0.0799744 0.702148
0.600586 0.0791016 0.702788
0.393811 0.0673828 0.801758
0.389648 0.0673828 0.807034
0.592693 0.0732422 0.708008
0.588867 0.0732422 0.711077
0.594727 0.0787842 0.708008
0.400195 0.0791016 0.795898
0.401367 0.0813191 0.795898
0.438402 0.0791016 0.795898
0.443498 0.0791016 0.795898
0.442383 0.0831782 0.795898
0.442383 0.0791016 0.796731
0.577689 0.0498047 0.719727
0.577148 0.0498047 0.720317
0.394857 0.0732422 0.801758
0.395508 0.0744523 0.801758
0.388758 0.0556641 0.801758
0.389648 0.0564377 0.801758
0.392469 0.0615234 0.801758
0.389648 0.0615234 0.8049
0.580007 0.0556641 0.719727
0.577148 0.0556641 0.721656
0.585033 0.0673828 0.713867
0.380094 0.0498047 0.813477
0.581044 0.0615234 0.719727
0.577148 0.0615234 0.723715
0.583008 0.0664914 0.719727
0.389423 0.0673828 0.807617
0.389648 0.0677937 0.807617
0.588867 0.0791016 0.711484
0.594805 0.0791016 0.708008
0.594727 0.0797826 0.708008
0.594727 0.0791016 0.70807
0.398 0.0791016 0.801758
0.383916 0.0556641 0.807617
0.383789 0.0556641 0.807943
0.39161 0.0732422 0.807617
0.395508 0.0788381 0.807617
0.573418 0.0498047 0.725586
0.571289 0.0498047 0.728394
0.587415 0.0732422 0.713867
0.387191 0.0615234 0.807617
0.57305 0.0556641 0.725586
0.571289 0.0556641 0.728406
0.583301 0.0673828 0.719727
0.583008 0.0673828 0.720111
0.379332 0.0498047 0.819336
0.57531 0.0615234 0.725586
0.577148 0.0669246 0.725586
0.387516 0.0673828 0.813477
0.383789 0.0673828 0.818274
0.389648 0.0708427 0.813477
0.395744 0.0791016 0.807617
0.395508 0.0791016 0.807877
0.381611 0.0556641 0.813477
0.383789 0.0595311 0.813477
0.390671 0.0732422 0.813477
0.389648 0.0732422 0.815387
0.586552 0.0791016 0.713867
0.583008 0.0791016 0.719377
0.588867 0.0815082 0.713867
0.568428 0.0498047 0.731445
0.56543 0.0498047 0.733084
0.583631 0.0732422 0.719727
0.583008 0.0761031 0.719727
0.583008 0.0732422 0.720107
0.384906 0.0615234 0.813477
0.383789 0.0615234 0.814702
0.56895 0.0556641 0.731445
0.56543 0.0556641 0.732812
0.571289 0.0587794 0.731445
0.577324 0.0673828 0.725586
0.577148 0.0673828 0.725853
0.378382 0.0498047 0.825195
0.37793 0.0498047 0.827102
0.56543 0.0615234 0.733713
0.572639 0.0615234 0.731445
0.571289 0.0615234 0.733038
0.38038 0.0556641 0.819336
0.392282 0.0791016 0.813477
0.383312 0.0673828 0.819336
0.383789 0.0682877 0.819336
0.387283 0.0732422 0.819336
0.389648 0.0772679 0.819336
0.58266 0.0791016 0.719727
0.583008 0.0800494 0.719727
0.381283 0.0615234 0.819336
0.577681 0.0732422 0.725586
0.577148 0.0732422 0.726832
0.573866 0.0673828 0.731445
0.571289 0.0673828 0.734197
0.37793 0.0515296 0.831055
0.379326 0.0556641 0.825195
0.390386 0.0791016 0.819336
0.389648 0.0791016 0.821133
0.56543 0.0666828 0.737305
0.383555 0.0673828 0.825195
0.383789 0.0678034 0.825195
0.385768 0.0732422 0.825195
0.381622 0.0615234 0.825195
0.578603 0.0791016 0.725586
0.577148 0.0791016 0.728513
0.56543 0.0732422 0.733853
0.575016 0.0732422 0.731445
0.571289 0.0732422 0.735205
0.379414 0.0556641 0.831055
0.37793 0.0556641 0.83517
0.567175 0.0673828 0.737305
0.56543 0.0680825 0.737305
0.56543 0.0673828 0.73784
0.381215 0.0673828 0.831055
0.383789 0.0719968 0.831055
0.387209 0.0791016 0.825195
0.383789 0.0791016 0.830869
0.384243 0.0732422 0.831055
0.383789 0.0779427 0.831055
0.383789 0.0732422 0.831806
0.379922 0.0615234 0.831055
0.56543 0.0791016 0.735018
0.575608 0.0791016 0.731445
0.571289 0.0791016 0.736294
0.577148 0.0843476 0.731445
0.37793 0.0585095 0.836914
0.378535 0.0673828 0.836914
0.383789 0.0794152 0.831055
0.379058 0.0615234 0.836914
0.571289 0.0817161 0.737305
0.383789 0.0836902 0.836914
0.186774 0.0908203 0.696289
0.18457 0.0908203 0.697682
0.18457 0.108398 0.700469
0.704934 0.114258 0.555664
0.18457 0.114258 0.700786
0.187961 0.0966797 0.696289
0.18457 0.0966797 0.698635
0.70015 0.102539 0.549805
0.700195 0.102646 0.549805
0.700195 0.102539 0.550007
0.700195 0.102358 0.549805
0.189732 0.102539 0.696289
0.18457 0.102539 0.698984
0.186154 0.0849609 0.696289
0.18457 0.0849609 0.697155
0.702711 0.108398 0.555664
0.700195 0.108398 0.561435
0.703814 0.0908203 0.555664
0.708232 0.0849609 0.555664
0.706055 0.0880984 0.555664
0.706055 0.0849609 0.559497
0.702154 0.0966797 0.555664
0.701751 0.102539 0.555664
0.182278 0.108398 0.702148
0.178711 0.108398 0.704719
0.70229 0.114258 0.561523
0.700195 0.114258 0.564391
0.182844 0.114258 0.702148
0.178711 0.114258 0.705692
0.180333 0.0908203 0.702148
0.178711 0.0908203 0.703951
0.181007 0.0966797 0.702148
0.178711 0.0966797 0.704669
0.180812 0.102539 0.702148
0.178711 0.102539 0.704019
0.180364 0.0849609 0.702148
0.178711 0.0849609 0.704516
0.700151 0.108398 0.561523
0.700195 0.108537 0.561523
0.700195 0.108398 0.561776
0.704127 0.0908203 0.561523
0.702511 0.0966797 0.561523
0.676758 0.0849609 0.566564
0.682617 0.0849609 0.565944
0.688477 0.0849609 0.564846
0.694336 0.0849609 0.564919
0.70438 0.0849609 0.561523
0.700195 0.0849609 0.563666
0.700632 0.102539 0.561523
0.700195 0.107864 0.561523
0.176105 0.0908203 0.708008
0.176142 0.108398 0.708008
0.172852 0.108398 0.711945
0.698699 0.114258 0.567383
0.700195 0.114258 0.568752
0.176733 0.114258 0.708008
0.172852 0.114258 0.713532
0.175684 0.0966797 0.708008
0.172852 0.0966797 0.711656
0.175425 0.102539 0.708008
0.172852 0.102539 0.711267
0.17714 0.0849609 0.708008
0.676758 0.0908203 0.57134
0.682617 0.0908203 0.570183
0.688477 0.0908203 0.571175
0.694336 0.0908203 0.570056
0.702769 0.0908203 0.567383
0.700195 0.0908203 0.568691
0.70117 0.108398 0.567383
0.700195 0.110389 0.567383
0.682617 0.0966797 0.572578
0.688477 0.0966797 0.572593
0.704647 0.0966797 0.567383
0.702433 0.102539 0.567383
0.171217 0.108398 0.713867
0.173788 0.0908203 0.713867
0.172852 0.0934993 0.713867
0.172852 0.0908203 0.715632
0.676177 0.0849609 0.567383
0.676758 0.0861144 0.567383
0.682617 0.0872887 0.567383
0.688477 0.0868678 0.567383
0.694336 0.0866189 0.567383
0.700195 0.0892926 0.567383
0.703638 0.114258 0.573242
0.700195 0.118213 0.573242
0.171216 0.102539 0.713867
0.17164 0.0966797 0.713867
0.172587 0.114258 0.713867
0.172852 0.118254 0.713867
0.174756 0.0849609 0.713867
0.172852 0.0849609 0.717595
0.674434 0.0908203 0.573242
0.676758 0.0928674 0.573242
0.694336 0.0939124 0.573242
0.700195 0.0937772 0.573242
0.705076 0.108398 0.573242
0.706055 0.108398 0.578177
0.670898 0.0966797 0.576453
0.679717 0.0966797 0.573242
0.676758 0.0966797 0.575158
0.682617 0.100859 0.573242
0.689564 0.0966797 0.573242
0.688477 0.0973705 0.573242
0.694336 0.0966797 0.57576
0.703341 0.0966797 0.573242
0.700195 0.0966797 0.576566
0.676758 0.102539 0.575439
0.682617 0.102539 0.574519
0.688477 0.102539 0.577535
0.694336 0.102539 0.57646
0.705878 0.102539 0.573242
0.706055 0.102539 0.574706
0.336914 0.108398 0.643378
0.336914 0.0849609 0.648612
0.342773 0.0849609 0.646861
0.348633 0.0849609 0.646631
0.672715 0.0849609 0.573242
0.670898 0.0849609 0.575767
0.168018 0.108398 0.719727
0.166992 0.108398 0.721238
0.705848 0.114258 0.579102
0.16884 0.0966797 0.719727
0.166992 0.0966797 0.722801
0.167732 0.102539 0.719727
0.166992 0.102539 0.72103
0.336914 0.0908203 0.647218
0.342773 0.0908203 0.645451
0.354492 0.0908203 0.648037
0.170365 0.0908203 0.719727
0.166992 0.0908203 0.724843
0.331055 0.102539 0.645655
0.336914 0.107247 0.643555
0.336914 0.102539 0.644569
0.342773 0.102539 0.646376
0.348633 0.102539 0.648862
0.331055 0.0966797 0.648458
0.336914 0.0966797 0.645665
0.342773 0.0966797 0.646978
0.354492 0.0966797 0.648425
0.167872 0.114258 0.719727
0.166992 0.114258 0.721022
0.171382 0.0849609 0.719727
0.166992 0.0849609 0.725321
0.331055 0.114258 0.641302
0.336914 0.114258 0.642303
0.665039 0.0908203 0.583769
0.671176 0.0908203 0.579102
0.670898 0.0918596 0.579102
0.670898 0.0908203 0.579356
0.700195 0.108398 0.584945
0.706256 0.108398 0.579102
0.706055 0.111785 0.579102
0.706055 0.108398 0.579862
0.665039 0.102539 0.584513
0.671643 0.102539 0.579102
0.670898 0.102539 0.580222
0.698452 0.102539 0.579102
0.694336 0.105351 0.579102
0.700195 0.102539 0.58013
0.7065 0.102539 0.579102
0.706055 0.102539 0.579504
0.669481 0.0966797 0.579102
0.665039 0.0966797 0.583114
0.670898 0.0998095 0.579102
0.700195 0.0998399 0.579102
0.706055 0.100933 0.579102
0.325195 0.108398 0.647827
0.333557 0.108398 0.643555
0.331055 0.109212 0.643555
0.331055 0.108398 0.643892
0.337364 0.108398 0.643555
0.342773 0.108398 0.645599
0.348633 0.108398 0.648528
0.46582 0.0908203 0.653148
0.668866 0.0849609 0.579102
0.670898 0.0901632 0.579102
0.335154 0.0849609 0.649414
0.331055 0.0849609 0.652916
0.353882 0.0849609 0.649414
0.348633 0.0894036 0.649414
0.354492 0.0876635 0.649414
0.354492 0.0849609 0.650473
0.360352 0.0849609 0.65195
0.366211 0.0849609 0.654579
0.37207 0.0849609 0.654228
0.164555 0.0966797 0.725586
0.161133 0.0966797 0.731044
0.163708 0.108398 0.725586
0.161133 0.108398 0.72876
0.332656 0.0908203 0.649414
0.331055 0.094578 0.649414
0.331055 0.0908203 0.651035
0.346305 0.0908203 0.649414
0.352742 0.0908203 0.649414
0.348633 0.0908203 0.650267
0.35573 0.0908203 0.649414
0.360352 0.0908203 0.651087
0.366211 0.0908203 0.654408
0.163676 0.102539 0.725586
0.161133 0.102539 0.728664
0.166399 0.0908203 0.725586
0.330433 0.0966797 0.649414
0.348015 0.0966797 0.649414
0.349671 0.0966797 0.649414
0.348633 0.098848 0.649414
0.348633 0.0966797 0.649662
0.357638 0.0966797 0.649414
0.354492 0.0992007 0.649414
0.360352 0.0966797 0.650673
0.366211 0.0966797 0.654067
0.166848 0.0849609 0.725586
0.328569 0.102539 0.649414
0.325195 0.106919 0.649414
0.325195 0.102539 0.65473
0.349904 0.102539 0.649414
0.354492 0.102539 0.651264
0.360352 0.102539 0.654485
0.459961 0.0966797 0.651322
0.46582 0.0966797 0.654261
0.163936 0.114258 0.725586
0.161133 0.114258 0.729517
0.459961 0.0849609 0.651424
0.46582 0.0849609 0.652943
0.662443 0.0908203 0.584961
0.328886 0.114258 0.643555
0.325195 0.114258 0.647645
0.337872 0.114258 0.643555
0.336914 0.1154 0.643555
0.342773 0.114258 0.649216
0.662982 0.0966797 0.584961
0.664721 0.102539 0.584961
0.160945 0.0966797 0.731445
0.665303 0.0849609 0.584961
0.665039 0.0863214 0.584961
0.665039 0.0849609 0.585319
0.464756 0.0908203 0.655273
0.459961 0.0952612 0.655273
0.467442 0.0908203 0.655273
0.46582 0.0908203 0.656086
0.47168 0.0908203 0.658538
0.32761 0.0849609 0.655273
0.325195 0.0849609 0.657572
0.373029 0.0849609 0.655273
0.37207 0.0859298 0.655273
0.37207 0.0849609 0.657856
0.313477 0.108398 0.655146
0.324049 0.108398 0.649414
0.349754 0.108398 0.649414
0.348633 0.110931 0.649414
0.354492 0.108398 0.652834
0.158916 0.108398 0.731445
0.155273 0.108398 0.736024
0.159424 0.102539 0.731445
0.47168 0.102539 0.660335
0.325338 0.0908203 0.655273
0.325195 0.0908203 0.655376
0.367039 0.0908203 0.655273
0.16286 0.0908203 0.731445
0.161133 0.0961027 0.731445
0.161133 0.0908203 0.733833
0.164429 0.0849609 0.731445
0.161133 0.0849609 0.736452
0.659939 0.0908203 0.59082
0.65918 0.0908203 0.592412
0.313477 0.108243 0.655273
0.324629 0.102539 0.655273
0.319336 0.102539 0.659962
0.361442 0.102539 0.655273
0.360352 0.103556 0.655273
0.459202 0.0966797 0.655273
0.459961 0.0982091 0.655273
0.459961 0.0966797 0.656034
0.46622 0.0966797 0.655273
0.46582 0.0995749 0.655273
0.46582 0.0966797 0.655612
0.47168 0.0966797 0.660048
0.325849 0.0966797 0.655273
0.325195 0.099548 0.655273
0.325195 0.0966797 0.655898
0.367842 0.0966797 0.655273
0.366211 0.0982499 0.655273
0.366211 0.0966797 0.656559
0.159656 0.114258 0.731445
0.161133 0.119277 0.731445
0.45889 0.0849609 0.655273
0.459961 0.0861833 0.655273
0.459961 0.0849609 0.655906
0.467062 0.0849609 0.655273
0.46582 0.0849609 0.658014
0.47168 0.0849609 0.659304
0.313477 0.114258 0.65279
0.322036 0.114258 0.649414
0.319336 0.117092 0.649414
0.319336 0.114258 0.650649
0.343437 0.114258 0.649414
0.348633 0.114258 0.651485
0.354492 0.114258 0.654656
0.660958 0.0966797 0.59082
0.65918 0.0966797 0.593296
0.661312 0.102539 0.59082
0.65918 0.102539 0.594644
0.157173 0.0966797 0.737305
0.155273 0.0966797 0.739907
0.323308 0.0849609 0.661133
0.371245 0.0849609 0.661133
0.313161 0.108398 0.655273
0.315495 0.108398 0.655273
0.319988 0.108398 0.655273
0.319336 0.108822 0.655273
0.319336 0.108398 0.65561
0.357489 0.108398 0.655273
0.470212 0.0908203 0.661133
0.47502 0.0908203 0.661133
0.47168 0.0908203 0.662741
0.477539 0.0908203 0.666133
0.483398 0.0908203 0.666862
0.661312 0.0849609 0.59082
0.65918 0.0849609 0.59289
0.320762 0.0908203 0.661133
0.319336 0.0908203 0.663225
0.367491 0.0908203 0.661133
0.366211 0.0926185 0.661133
0.15448 0.108398 0.737305
0.155273 0.111861 0.737305
0.656618 0.108398 0.602539
0.65332 0.108398 0.60706
0.65648 0.0908203 0.59668
0.65332 0.0908203 0.599976
0.469879 0.102539 0.661133
0.472585 0.102539 0.661133
0.47168 0.104986 0.661133
0.47168 0.102539 0.665379
0.477539 0.102539 0.666
0.155891 0.102539 0.737305
0.155273 0.104642 0.737305
0.155273 0.102539 0.738323
0.16042 0.0849609 0.737305
0.318613 0.102539 0.661133
0.313477 0.105968 0.661133
0.363041 0.102539 0.661133
0.360352 0.108038 0.661133
0.158235 0.0908203 0.737305
0.155273 0.0908203 0.741179
0.658354 0.102539 0.59668
0.320715 0.0966797 0.661133
0.319336 0.0996964 0.661133
0.319336 0.0966797 0.662605
0.363576 0.0966797 0.661133
0.360352 0.0966797 0.663621
0.655955 0.0966797 0.59668
0.155887 0.114258 0.737305
0.155273 0.114258 0.738299
0.46818 0.0849609 0.661133
0.473015 0.0849609 0.661133
0.47168 0.0849609 0.662168
0.477539 0.0849609 0.666078
0.312193 0.114258 0.655273
0.313477 0.114258 0.659209
0.355018 0.114258 0.655273
0.354492 0.115876 0.655273
0.470743 0.0966797 0.661133
0.472884 0.0966797 0.661133
0.47168 0.0966797 0.662183
0.477539 0.0966797 0.666583
0.153087 0.0966797 0.743164
0.321602 0.0849609 0.666992
0.319336 0.08874 0.666992
0.477265 0.0908203 0.666992
0.483398 0.0909874 0.666992
0.483398 0.0908203 0.66727
0.654425 0.0849609 0.59668
0.65332 0.0849609 0.598434
0.635742 0.114258 0.624499
0.645776 0.114258 0.620117
0.641602 0.114258 0.621726
0.318326 0.0908203 0.666992
0.319336 0.0908203 0.670215
0.360352 0.0927263 0.666992
0.301758 0.108398 0.666684
0.311355 0.108398 0.661133
0.313477 0.113168 0.661133
0.359954 0.108398 0.661133
0.652021 0.108398 0.608398
0.651192 0.0908203 0.602539
0.65332 0.0952729 0.602539
0.151634 0.108398 0.743164
0.149414 0.108398 0.747309
0.301758 0.107843 0.666992
0.315257 0.102539 0.666992
0.313477 0.10327 0.666992
0.313477 0.102539 0.670197
0.656964 0.102539 0.602539
0.65332 0.102539 0.607296
0.654249 0.0966797 0.602539
0.65332 0.0966797 0.604157
0.155806 0.0849609 0.743164
0.155273 0.0864122 0.743164
0.155273 0.0849609 0.744187
0.154067 0.0908203 0.743164
0.3177 0.0966797 0.666992
0.319336 0.0966797 0.671209
0.358032 0.0966797 0.666992
0.473168 0.102539 0.666992
0.478736 0.102539 0.666992
0.477539 0.105469 0.666992
0.152413 0.102539 0.743164
0.149414 0.102539 0.747619
0.47719 0.0966797 0.666992
0.478042 0.0966797 0.666992
0.477539 0.0966797 0.667338
0.476845 0.0849609 0.666992
0.478688 0.0849609 0.666992
0.483398 0.0906291 0.666992
0.151592 0.114258 0.743164
0.149414 0.114258 0.747195
0.307617 0.114258 0.666602
0.314121 0.114258 0.661133
0.313477 0.119017 0.661133
0.313477 0.114258 0.6625
0.358333 0.114258 0.661133
0.354492 0.119453 0.661133
0.149742 0.0966797 0.749023
0.149414 0.098474 0.749023
0.149414 0.0966797 0.749814
0.321013 0.0849609 0.672852
0.319336 0.0849609 0.675788
0.354492 0.0849609 0.678596
0.65162 0.0849609 0.602539
0.313477 0.0908203 0.676414
0.320175 0.0908203 0.672852
0.319336 0.0908203 0.675725
0.649557 0.0908203 0.608398
0.647461 0.0908203 0.612132
0.301301 0.108398 0.666992
0.302221 0.108398 0.666992
0.301758 0.108864 0.666992
0.310309 0.108398 0.666992
0.307617 0.11406 0.666992
0.307617 0.108398 0.670354
0.648352 0.108398 0.614258
0.647461 0.108398 0.615018
0.635098 0.114258 0.625977
0.635742 0.115311 0.625977
0.148431 0.108398 0.749023
0.652608 0.102539 0.608398
0.647461 0.102539 0.613674
0.650869 0.0966797 0.608398
0.647461 0.0966797 0.614227
0.301758 0.10622 0.672852
0.301758 0.102539 0.677296
0.309781 0.102539 0.672852
0.307617 0.103117 0.672852
0.307617 0.102539 0.673353
0.15123 0.0908203 0.749023
0.149414 0.0908203 0.754827
0.301758 0.0966797 0.675207
0.307617 0.0966797 0.678089
0.313477 0.100169 0.672852
0.313477 0.0966797 0.676118
0.319849 0.0966797 0.672852
0.319336 0.0977826 0.672852
0.319336 0.0966797 0.674695
0.348633 0.0966797 0.67849
0.148735 0.102539 0.749023
0.153734 0.0849609 0.749023
0.307419 0.114258 0.666992
0.1487 0.114258 0.749023
0.301758 0.0849609 0.683769
0.307617 0.0849609 0.680783
0.313501 0.0849609 0.678711
0.313477 0.0849755 0.678711
0.313477 0.0849609 0.678733
0.354276 0.0849609 0.678711
0.146968 0.0966797 0.754883
0.649826 0.0849609 0.608398
0.647461 0.0849609 0.612436
0.301758 0.0942329 0.678711
0.310511 0.0908203 0.678711
0.307617 0.0958072 0.678711
0.307617 0.0908203 0.681647
0.348633 0.096314 0.678711
0.645795 0.0908203 0.614258
0.635742 0.108398 0.622965
0.642428 0.108398 0.620117
0.641602 0.108398 0.62095
0.299708 0.108398 0.672852
0.301758 0.112683 0.672852
0.342773 0.108398 0.676445
0.145686 0.108398 0.754883
0.143555 0.108398 0.758379
0.646776 0.102539 0.614258
0.641602 0.102539 0.618646
0.647461 0.105082 0.614258
0.624023 0.114258 0.636834
0.632918 0.114258 0.631836
0.629883 0.114258 0.635815
0.635742 0.116457 0.631836
0.647431 0.0966797 0.614258
0.641602 0.0966797 0.618767
0.296529 0.102539 0.678711
0.342773 0.106184 0.678711
0.342773 0.102539 0.682815
0.299583 0.0966797 0.678711
0.348352 0.0966797 0.678711
0.149394 0.0908203 0.754883
0.151435 0.0849609 0.754883
0.149414 0.0907681 0.754883
0.149414 0.0849609 0.760234
0.146095 0.102539 0.754883
0.143555 0.102539 0.759972
0.303476 0.114258 0.672852
0.301758 0.116696 0.672852
0.301758 0.114258 0.677642
0.145494 0.114258 0.754883
0.143555 0.114258 0.758546
0.646387 0.0849609 0.614258
0.196289 0.0849609 0.69027
0.202148 0.0849609 0.690068
0.208008 0.0849609 0.68853
0.28418 0.0849609 0.689803
0.290039 0.0849609 0.690229
0.299792 0.0849609 0.68457
0.295898 0.0849609 0.685932
0.301758 0.087045 0.68457
0.336914 0.0849609 0.688599
0.342773 0.0849609 0.688472
0.633469 0.108398 0.625977
0.629883 0.108398 0.6307
0.144628 0.0966797 0.760742
0.143555 0.100974 0.760742
0.143555 0.0966797 0.763322
0.297713 0.108398 0.678711
0.340405 0.108398 0.678711
0.336914 0.108398 0.682508
0.202148 0.0908203 0.690312
0.208008 0.0908203 0.68964
0.290039 0.0908203 0.689252
0.295898 0.0908203 0.686732
0.303444 0.0908203 0.68457
0.301758 0.0915924 0.68457
0.301758 0.0908203 0.685814
0.336914 0.0908203 0.688605
0.342773 0.0908203 0.68833
0.635742 0.0908203 0.622737
0.642304 0.0908203 0.620117
0.641602 0.0931448 0.620117
0.641602 0.0908203 0.620709
0.14246 0.108398 0.760742
0.290039 0.0966797 0.689198
0.297632 0.0966797 0.68457
0.295898 0.0966797 0.689154
0.342773 0.100224 0.68457
0.637362 0.102539 0.620117
0.635742 0.102539 0.621745
0.641602 0.106278 0.620117
0.146184 0.0908203 0.760742
0.638999 0.0966797 0.620117
0.635742 0.0966797 0.62339
0.28418 0.102539 0.688071
0.297761 0.102539 0.68457
0.295898 0.102539 0.68703
0.340697 0.102539 0.68457
0.336914 0.106147 0.68457
0.336914 0.102539 0.689151
0.622551 0.114258 0.637695
0.624023 0.117619 0.637695
0.629883 0.116923 0.637695
0.635742 0.119844 0.637695
0.149199 0.0849609 0.760742
0.301584 0.114258 0.678711
0.301758 0.11458 0.678711
0.301758 0.114258 0.680132
0.336914 0.119618 0.678711
0.336914 0.114258 0.682159
0.143238 0.102539 0.760742
0.142512 0.114258 0.760742
0.642895 0.0849609 0.620117
0.641602 0.0849609 0.622267
0.628499 0.108398 0.631836
0.624023 0.108398 0.636845
0.629883 0.109698 0.631836
0.195979 0.0849609 0.69043
0.19043 0.0849609 0.694234
0.196289 0.0855106 0.69043
0.209495 0.0849609 0.69043
0.213867 0.0849609 0.69341
0.225586 0.0849609 0.692965
0.243164 0.0849609 0.695955
0.283461 0.0849609 0.69043
0.28418 0.0870931 0.69043
0.335364 0.0849609 0.69043
0.140835 0.108398 0.766602
0.298026 0.108398 0.68457
0.301758 0.113647 0.68457
0.335071 0.108398 0.68457
0.142433 0.0966797 0.766602
0.19043 0.0908203 0.694371
0.201821 0.0908203 0.69043
0.196289 0.0908203 0.691827
0.202148 0.0920255 0.69043
0.208804 0.0908203 0.69043
0.208008 0.0929477 0.69043
0.213867 0.0908203 0.693607
0.225586 0.0908203 0.694342
0.286999 0.0908203 0.69043
0.28418 0.0908203 0.692883
0.335453 0.0908203 0.69043
0.336914 0.0929281 0.69043
0.55957 0.114258 0.736043
0.19043 0.0966797 0.694758
0.196289 0.0966797 0.693372
0.202148 0.0966797 0.690826
0.208008 0.0966797 0.691875
0.287526 0.0966797 0.69043
0.28418 0.0981683 0.69043
0.28418 0.0966797 0.692669
0.290039 0.0978562 0.69043
0.336914 0.100896 0.69043
0.336914 0.0966797 0.69608
0.63146 0.102539 0.625977
0.63249 0.0908203 0.625977
0.629883 0.0908203 0.629806
0.143964 0.0908203 0.766602
0.143555 0.0921994 0.766602
0.143555 0.0908203 0.767722
0.633124 0.0966797 0.625977
0.629883 0.0966797 0.628121
0.146538 0.0849609 0.766602
0.143555 0.0849609 0.772093
0.619028 0.114258 0.643555
0.618164 0.114258 0.645266
0.19043 0.102539 0.695988
0.196289 0.102539 0.694616
0.202148 0.102539 0.691983
0.208008 0.102539 0.691879
0.213867 0.102539 0.693939
0.219727 0.102539 0.69615
0.282143 0.102539 0.69043
0.287083 0.102539 0.69043
0.28418 0.104607 0.69043
0.292919 0.102539 0.69043
0.290039 0.102539 0.694305
0.295898 0.105498 0.69043
0.335845 0.102539 0.69043
0.141492 0.102539 0.766602
0.231445 0.114258 0.690401
0.237305 0.114258 0.689779
0.302233 0.114258 0.68457
0.301758 0.114258 0.685493
0.335026 0.114258 0.68457
0.331055 0.114258 0.687706
0.140449 0.114258 0.766602
0.547852 0.108398 0.742767
0.553711 0.108398 0.73927
0.55957 0.113189 0.737305
0.55957 0.108398 0.740291
0.639353 0.0849609 0.625977
0.635742 0.0877873 0.625977
0.623312 0.108398 0.637695
0.139273 0.108398 0.772461
0.137695 0.108398 0.776987
0.14011 0.0966797 0.772461
0.219625 0.0849609 0.696289
0.219854 0.0849609 0.696289
0.219727 0.0849609 0.696333
0.230038 0.0849609 0.696289
0.231445 0.0849609 0.697255
0.240459 0.0849609 0.696289
0.237305 0.0849609 0.696897
0.243469 0.0849609 0.696289
0.243164 0.0887345 0.696289
0.280427 0.0849609 0.696289
0.27832 0.0849609 0.699838
0.334216 0.0849609 0.696289
0.217298 0.0908203 0.696289
0.213867 0.0943811 0.696289
0.223492 0.0908203 0.696289
0.229463 0.0908203 0.696289
0.225586 0.0947766 0.696289
0.231445 0.0908203 0.6971
0.237305 0.0908203 0.697752
0.243164 0.0908203 0.69733
0.249023 0.0908203 0.699494
0.282198 0.0908203 0.696289
0.334272 0.0908203 0.696289
0.196289 0.108398 0.6937
0.202148 0.108398 0.691589
0.208008 0.108398 0.691384
0.213867 0.108398 0.692362
0.219727 0.108398 0.69381
0.231445 0.114225 0.69043
0.237305 0.113386 0.69043
0.237305 0.108398 0.695945
0.243164 0.108398 0.694514
0.249023 0.108398 0.693696
0.290039 0.108398 0.691346
0.297989 0.108398 0.69043
0.295898 0.108398 0.69359
0.333743 0.108398 0.69043
0.331055 0.109874 0.69043
0.211566 0.0966797 0.696289
0.213867 0.100601 0.696289
0.213867 0.0966797 0.698416
0.219727 0.10215 0.696289
0.219727 0.0966797 0.699396
0.225586 0.0966797 0.697566
0.231445 0.0966797 0.696852
0.237305 0.0966797 0.700487
0.243164 0.0966797 0.700356
0.272461 0.0966797 0.700849
0.28184 0.0966797 0.696289
0.27832 0.0966797 0.699071
0.336724 0.0966797 0.696289
0.142007 0.0908203 0.772461
0.630196 0.102539 0.631836
0.629883 0.104097 0.631836
0.629883 0.102539 0.632443
0.628732 0.0908203 0.631836
0.628204 0.0966797 0.631836
0.629883 0.101497 0.631836
0.547852 0.114258 0.741723
0.556469 0.114258 0.737305
0.553711 0.114258 0.738731
0.560682 0.114258 0.737305
0.55957 0.117763 0.737305
0.143432 0.0849609 0.772461
0.139316 0.102539 0.772461
0.137695 0.102539 0.777856
0.137857 0.114258 0.772461
0.137695 0.114258 0.772963
0.616201 0.114258 0.649414
0.19043 0.105031 0.696289
0.220142 0.102539 0.696289
0.225586 0.102539 0.69847
0.231445 0.102539 0.699528
0.237305 0.107775 0.696289
0.237305 0.102539 0.698934
0.243164 0.105948 0.696289
0.243164 0.102539 0.699139
0.249023 0.106393 0.696289
0.249023 0.102539 0.700459
0.254883 0.102539 0.701275
0.272461 0.102539 0.700965
0.281054 0.102539 0.696289
0.27832 0.102539 0.702055
0.28418 0.106084 0.696289
0.335957 0.102539 0.696289
0.196289 0.114258 0.693814
0.202148 0.114258 0.691864
0.208008 0.114258 0.691081
0.213867 0.114258 0.691223
0.219727 0.114258 0.692516
0.231329 0.114258 0.69043
0.225586 0.114258 0.692165
0.24033 0.114258 0.69043
0.243164 0.116936 0.69043
0.243164 0.114258 0.69119
0.249023 0.119238 0.69043
0.249023 0.114258 0.692531
0.296287 0.114258 0.69043
0.295898 0.114258 0.691138
0.301758 0.11881 0.69043
0.326395 0.114258 0.69043
0.325195 0.118164 0.69043
0.331055 0.114258 0.694874
0.629883 0.090091 0.631836
0.639215 0.0849609 0.631836
0.635742 0.0876735 0.631836
0.620098 0.108398 0.643555
0.618164 0.108398 0.648821
0.518555 0.108398 0.747225
0.536133 0.108398 0.748622
0.54698 0.108398 0.743164
0.541992 0.108398 0.745991
0.137276 0.108398 0.77832
0.138347 0.0966797 0.77832
0.137695 0.101439 0.77832
0.137695 0.0966797 0.779957
0.248371 0.0966797 0.702148
0.249023 0.0977862 0.702148
0.249023 0.0966797 0.702578
0.254883 0.101149 0.702148
0.254883 0.0966797 0.704892
0.260742 0.0966797 0.70734
0.27046 0.0966797 0.702148
0.266602 0.0966797 0.706597
0.332877 0.0966797 0.702148
0.336914 0.0966797 0.707433
0.219513 0.0908203 0.702148
0.220386 0.0908203 0.702148
0.219727 0.0919998 0.702148
0.219727 0.0908203 0.702375
0.250039 0.0908203 0.702148
0.249023 0.0960892 0.702148
0.272461 0.0936546 0.702148
0.272461 0.0908203 0.704753
0.278952 0.0908203 0.702148
0.27832 0.0920835 0.702148
0.27832 0.0908203 0.702775
0.334817 0.0908203 0.702148
0.140654 0.0908203 0.77832
0.219727 0.0905783 0.702148
0.245591 0.0849609 0.702148
0.243164 0.0849609 0.705247
0.249023 0.0887555 0.702148
0.276708 0.0849609 0.702148
0.27832 0.0886687 0.702148
0.333669 0.0849609 0.702148
0.336914 0.0849609 0.70532
0.627813 0.0908203 0.637695
0.19127 0.108398 0.696289
0.19043 0.108398 0.696669
0.225129 0.108398 0.696289
0.225586 0.108717 0.696289
0.225586 0.108398 0.696487
0.236412 0.108398 0.696289
0.231445 0.110052 0.696289
0.231445 0.108398 0.697683
0.25144 0.108398 0.696289
0.254883 0.108398 0.698074
0.27832 0.108398 0.69992
0.285336 0.108398 0.696289
0.28418 0.108398 0.697371
0.290039 0.114105 0.696289
0.335366 0.108398 0.696289
0.331055 0.108398 0.700357
0.336914 0.108398 0.699385
0.627706 0.0966797 0.637695
0.14209 0.0849609 0.77832
0.55957 0.102539 0.735891
0.624494 0.102539 0.637695
0.624023 0.104485 0.637695
0.624023 0.102539 0.638401
0.55957 0.0908203 0.736546
0.137571 0.102539 0.77832
0.136424 0.114258 0.77832
0.546009 0.114258 0.743164
0.541992 0.114258 0.746286
0.615302 0.114258 0.655273
0.61801 0.108398 0.649414
0.629883 0.0878059 0.637695
0.63729 0.0849609 0.637695
0.635742 0.0869495 0.637695
0.635742 0.0849609 0.638807
0.55957 0.0849609 0.734576
0.255979 0.102539 0.702148
0.267159 0.102539 0.702148
0.266602 0.102539 0.70233
0.272461 0.104452 0.702148
0.33204 0.102539 0.702148
0.331055 0.104188 0.702148
0.336914 0.106798 0.702148
0.336914 0.102539 0.705485
0.19201 0.114258 0.696289
0.19043 0.114258 0.697418
0.253397 0.114258 0.696289
0.254883 0.115395 0.696289
0.254883 0.114258 0.696911
0.260742 0.114258 0.699194
0.266602 0.120096 0.696289
0.272461 0.114258 0.700074
0.27832 0.114258 0.702098
0.28418 0.114258 0.700137
0.290409 0.114258 0.696289
0.290039 0.114258 0.696753
0.33445 0.114258 0.696289
0.331055 0.115427 0.696289
0.331055 0.114258 0.700166
0.336914 0.114258 0.69853
0.553711 0.0966797 0.737003
0.55957 0.0966797 0.7364
0.135682 0.108398 0.78418
0.506836 0.108398 0.753127
0.513797 0.108398 0.749023
0.512695 0.108398 0.74958
0.52041 0.108398 0.749023
0.518555 0.113678 0.749023
0.524414 0.108398 0.750685
0.53581 0.108398 0.749023
0.530273 0.108398 0.751874
0.536133 0.109198 0.749023
0.260742 0.0992212 0.708008
0.260742 0.0966797 0.709417
0.138824 0.0908203 0.78418
0.137695 0.0930678 0.78418
0.137695 0.0908203 0.786753
0.136482 0.0966797 0.78418
0.252556 0.0908203 0.708008
0.254883 0.0936941 0.708008
0.260742 0.0959293 0.708008
0.270173 0.0908203 0.708008
0.266602 0.0952107 0.708008
0.266602 0.0908203 0.71181
0.335899 0.0908203 0.708008
0.336914 0.0933719 0.708008
0.336914 0.0908203 0.710509
0.140315 0.0849609 0.78418
0.627722 0.0908203 0.643555
0.625189 0.0966797 0.643555
0.624023 0.0990149 0.643555
0.624023 0.0966797 0.645872
0.231445 0.0849609 0.713242
0.241512 0.0849609 0.708008
0.237305 0.0849609 0.711301
0.243164 0.087118 0.708008
0.249023 0.0856028 0.708008
0.249023 0.0849609 0.710866
0.273021 0.0849609 0.708008
0.272461 0.0863284 0.708008
0.272461 0.0849609 0.710764
0.336914 0.0884207 0.708008
0.336914 0.0849609 0.708774
0.547852 0.102539 0.7413
0.55513 0.102539 0.737305
0.553711 0.102539 0.739505
0.561815 0.102539 0.737305
0.55957 0.104751 0.737305
0.135223 0.114258 0.78418
0.621752 0.102539 0.643555
0.13636 0.102539 0.78418
0.259931 0.108398 0.702148
0.260742 0.10947 0.702148
0.266602 0.108398 0.703026
0.27588 0.108398 0.702148
0.272461 0.111502 0.702148
0.272461 0.108398 0.705366
0.329153 0.108398 0.702148
0.334446 0.108398 0.702148
0.331055 0.108398 0.705728
0.336914 0.108398 0.705254
0.617647 0.108398 0.655273
0.618164 0.108398 0.65962
0.547852 0.0908203 0.742599
0.555015 0.0908203 0.737305
0.553711 0.0948735 0.737305
0.553711 0.0908203 0.738238
0.547852 0.0849609 0.741209
0.55636 0.0849609 0.737305
0.553711 0.0849609 0.738488
0.259897 0.102539 0.708008
0.2619 0.102539 0.708008
0.260742 0.102539 0.708798
0.336914 0.106607 0.708008
0.506836 0.114258 0.753929
0.512695 0.114258 0.752791
0.518555 0.114258 0.749225
0.524414 0.114258 0.751424
0.538818 0.114258 0.749023
0.536133 0.114258 0.752194
0.133478 0.108398 0.790039
0.131836 0.108398 0.795859
0.624023 0.0849609 0.646716
0.631556 0.0849609 0.643555
0.629883 0.0884457 0.643555
0.641602 0.0849609 0.647768
0.617077 0.114258 0.661133
0.618164 0.114258 0.662924
0.55337 0.0966797 0.737305
0.547852 0.0966797 0.742162
0.553711 0.0977252 0.737305
0.561334 0.0966797 0.737305
0.265639 0.114258 0.702148
0.268193 0.114258 0.702148
0.266602 0.116048 0.702148
0.266602 0.114258 0.702893
0.329908 0.114258 0.702148
0.332834 0.114258 0.702148
0.331055 0.114778 0.702148
0.331055 0.114258 0.702847
0.336914 0.114258 0.704607
0.505447 0.108398 0.754883
0.500977 0.108398 0.758281
0.530273 0.113214 0.754883
0.259637 0.0966797 0.713867
0.263172 0.0966797 0.713867
0.260742 0.0982844 0.713867
0.260742 0.0966797 0.715501
0.135639 0.0966797 0.790039
0.136382 0.0908203 0.790039
0.137839 0.0849609 0.790039
0.137695 0.0854944 0.790039
0.253284 0.0908203 0.713867
0.254883 0.0916822 0.713867
0.254883 0.0908203 0.714729
0.265653 0.0908203 0.713867
0.336914 0.0908203 0.714815
0.618164 0.0908203 0.655218
0.626693 0.0908203 0.649414
0.624023 0.0941912 0.649414
0.624023 0.0908203 0.653903
0.134675 0.102539 0.790039
0.133176 0.114258 0.790039
0.131836 0.114258 0.794654
0.621972 0.0966797 0.649414
0.620245 0.102539 0.649414
0.618164 0.10797 0.649414
0.231065 0.0849609 0.713867
0.231445 0.0853766 0.713867
0.231445 0.0849609 0.714181
0.237305 0.0890774 0.713867
0.237305 0.0849609 0.717966
0.247625 0.0849609 0.713867
0.243164 0.088385 0.713867
0.249408 0.0849609 0.713867
0.271178 0.0849609 0.713867
0.266602 0.0884259 0.713867
0.266602 0.0849609 0.716414
0.332156 0.0849609 0.713867
0.336914 0.0901003 0.713867
0.518555 0.102539 0.747956
0.54544 0.102539 0.743164
0.541992 0.102539 0.746487
0.260386 0.108398 0.708008
0.261485 0.108398 0.708008
0.260742 0.109064 0.708008
0.260742 0.108398 0.708278
0.333966 0.108398 0.708008
0.336914 0.108398 0.709607
0.618325 0.108398 0.661133
0.618164 0.108875 0.661133
0.341923 0.102539 0.713867
0.342773 0.102539 0.718084
0.131825 0.108398 0.795898
0.620235 0.114258 0.666992
0.624023 0.114258 0.672753
0.512695 0.0908203 0.74785
0.518555 0.0908203 0.746714
0.524414 0.0908203 0.74764
0.547129 0.0908203 0.743164
0.541992 0.0908203 0.748663
0.524414 0.0849609 0.744351
0.530273 0.0849609 0.746222
0.536133 0.0849609 0.748239
0.546434 0.0849609 0.743164
0.335153 0.114258 0.708008
0.336914 0.114258 0.711826
0.505904 0.114258 0.754883
0.500977 0.114258 0.75805
0.506836 0.118926 0.754883
0.529495 0.114258 0.754883
0.524414 0.118457 0.754883
0.53275 0.114258 0.754883
0.530273 0.114258 0.755746
0.512695 0.0966797 0.748827
0.518555 0.0966797 0.747512
0.545873 0.0966797 0.743164
0.541992 0.0966797 0.745855
0.61983 0.0849609 0.649414
0.628518 0.0849609 0.649414
0.624023 0.0890205 0.649414
0.631481 0.0849609 0.649414
0.629883 0.0870965 0.649414
0.629883 0.0849609 0.650098
0.639873 0.0849609 0.649414
0.642636 0.0849609 0.649414
0.641602 0.0858994 0.649414
0.641602 0.0849609 0.650381
0.135607 0.0908203 0.795898
0.133877 0.0966797 0.795898
0.495691 0.108398 0.760742
0.495117 0.108398 0.761208
0.500977 0.108398 0.765108
0.137898 0.0849609 0.795898
0.137695 0.0854179 0.795898
0.137695 0.0849609 0.798895
0.259411 0.0908203 0.719727
0.264316 0.0908203 0.719727
0.260742 0.0927447 0.719727
0.333446 0.0908203 0.719727
0.336914 0.0930614 0.719727
0.336914 0.0908203 0.725027
0.342773 0.0936722 0.719727
0.132801 0.102539 0.795898
0.131836 0.108331 0.795898
0.131836 0.102539 0.798639
0.621724 0.0966797 0.655273
0.618164 0.0966797 0.658733
0.13147 0.114258 0.795898
0.618087 0.0908203 0.655273
0.618164 0.0909173 0.655273
0.619871 0.102539 0.655273
0.618164 0.1067 0.655273
0.340506 0.108398 0.713867
0.342773 0.108398 0.715677
0.343367 0.102539 0.719727
0.129701 0.108398 0.801758
0.241318 0.0849609 0.719727
0.244286 0.0849609 0.719727
0.243164 0.0855303 0.719727
0.243164 0.0849609 0.722471
0.252556 0.0849609 0.719727
0.254883 0.0865139 0.719727
0.254883 0.0849609 0.720742
0.265284 0.0849609 0.719727
0.336068 0.0849609 0.719727
0.336914 0.0849609 0.721073
0.506836 0.102539 0.754027
0.515298 0.102539 0.749023
0.512695 0.102539 0.750498
0.520673 0.102539 0.749023
0.524414 0.102539 0.75168
0.530273 0.102539 0.752762
0.537282 0.102539 0.749023
0.536133 0.106342 0.749023
0.536133 0.102539 0.750503
0.621142 0.108398 0.666992
0.624023 0.108398 0.671955
0.339782 0.114258 0.713867
0.336914 0.119227 0.713867
0.342773 0.114258 0.716237
0.624088 0.114258 0.672852
0.624023 0.114881 0.672852
0.624023 0.114258 0.673408
0.496739 0.114258 0.760742
0.495117 0.114258 0.763103
0.511126 0.0908203 0.749023
0.506836 0.0908203 0.75324
0.527556 0.0908203 0.749023
0.524414 0.0930545 0.749023
0.524414 0.0908203 0.752963
0.530273 0.0908203 0.753649
