ply
format ascii 1.0
comment author Lingfeng Ai
element vertex 833
property float x
property float y
property float z
property float normal_x
property float normal_y
property float normal_z
end_header
-0.0791016 0.229133 0.87207 0.0369627 -0.76423 0.643883
-0.0732422 0.229597 0.87207 -0.0410344 -0.845482 0.532424
-0.0625284 0.225586 0.87207 -0.514379 -0.61457 0.598096
-0.0673828 0.228707 0.87207 -0.267774 -0.844787 0.463284
-0.0615234 0.225586 0.872942 -0.508951 -0.592927 0.624024
-0.0263672 0.225586 0.877101 0.320431 -0.367756 0.872972
-0.0205078 0.225586 0.875751 0.115806 -0.307877 0.944352
-0.0146484 0.225586 0.874592 0.370875 -0.338043 0.864973
-0.00529754 0.225586 0.87207 0.241289 -0.363237 0.899911
-0.00878906 0.225586 0.872911 0.244428 -0.370052 0.896279
-0.00292969 0.226715 0.87207 0.266892 -0.306923 0.913546
0.0322266 0.249023 0.871223 0.0732569 -0.49328 0.86678
0.0380859 0.249023 0.871189 -0.00280459 -0.431258 0.902224
0.0439453 0.249023 0.871223 0.0708953 -0.468135 0.880808
0.0498047 0.249023 0.870443 0.102168 -0.516511 0.850164
0.0556641 0.249023 0.869367 0.176123 -0.516225 0.838148
0.0647912 0.249023 0.866211 0.300616 -0.584435 0.753701
0.0615234 0.249023 0.867381 0.303827 -0.566476 0.766025
0.0673828 0.249836 0.866211 0.266605 -0.630069 0.729339
0.0732422 0.252676 0.866211 0.39226 -0.595795 0.700829
-0.125977 0.245819 0.87207 -0.377584 -0.647274 0.662168
-0.119641 0.243164 0.87207 -0.351016 -0.737364 0.577133
-0.120117 0.243331 0.87207 -0.36101 -0.729133 0.58141
-0.114258 0.243164 0.877514 -0.434804 -0.721237 0.539224
-0.00292969 0.243164 0.876739 0.183624 -0.247779 0.951256
-0.114258 0.240317 0.87207 -0.325792 -0.86164 0.389147
-0.107035 0.237305 0.87207 -0.309586 -0.771169 0.556287
-0.108398 0.238072 0.87207 -0.367247 -0.77778 0.510086
-0.102539 0.237305 0.875174 -0.234866 -0.800383 0.551566
-0.0966797 0.237305 0.876891 -0.180348 -0.820715 0.542127
-0.00878906 0.237305 0.877916 0.253118 -0.205077 0.945449
-0.00292969 0.237305 0.875078 0.181367 -0.27259 0.944881
-0.0908203 0.236518 0.87793 -0.187336 -0.803533 0.565012
-0.0849609 0.235032 0.87793 -0.218539 -0.786506 0.577624
-0.0791016 0.234081 0.87793 -0.0977335 -0.824813 0.556894
-0.0732422 0.233518 0.87793 -0.0353629 -0.836192 0.547295
-0.0627215 0.231445 0.87793 -0.243155 -0.703321 0.667993
-0.0673828 0.232907 0.87793 -0.0787776 -0.816604 0.571797
-0.0615234 0.231445 0.878717 -0.250834 -0.658138 0.709885
-0.0556641 0.231445 0.881908 -0.168587 -0.443666 0.880193
-0.0322266 0.231445 0.8831 0.164832 -0.0397914 0.985519
-0.0263672 0.231445 0.880933 0.447175 -0.154793 0.88095
-0.0166866 0.231445 0.87793 0.193512 -0.160448 0.967889
-0.0205078 0.231445 0.878235 0.144577 -0.219499 0.964841
-0.0146484 0.231869 0.87793 0.229892 -0.146684 0.962099
-0.118605 0.254883 0.889648 -0.30314 -0.31859 0.898113
-0.120117 0.256285 0.889648 -0.30005 -0.377247 0.876159
-0.114258 0.254883 0.891609 -0.22184 -0.224139 0.948973
-0.108398 0.254883 0.893313 -0.150212 -0.215073 0.964977
-0.102539 0.254883 0.894472 0.0520373 -0.285513 0.956961
-0.0966797 0.254883 0.894435 0.0949976 -0.362609 0.927087
-0.0908203 0.254883 0.893495 0.17604 -0.502398 0.846526
-0.0849609 0.254883 0.891931 0.182276 -0.611748 0.769766
-0.0765749 0.254883 0.889648 0.294822 -0.570223 0.766763
-0.0791016 0.254883 0.890805 0.281867 -0.580537 0.76389
-0.0732422 0.257123 0.889648 0.476762 -0.512123 0.714442
0.0673828 0.254883 0.870169 0.246558 -0.439522 0.86373
0.0770261 0.254883 0.866211 0.415988 -0.608881 0.675439
0.0732422 0.254883 0.868509 0.307616 -0.517014 0.798792
0.0791016 0.256339 0.866211 0.414813 -0.629364 0.657138
0.0849609 0.260359 0.866211 0.477294 -0.547401 0.687417
-0.125977 0.254633 0.883789 -0.394355 -0.619861 0.678422
-0.116488 0.249023 0.883789 -0.37522 -0.723109 0.579933
-0.120117 0.250929 0.883789 -0.40992 -0.716253 0.564754
-0.114258 0.249023 0.885199 -0.316828 -0.664335 0.676963
-0.108398 0.249023 0.888959 -0.138105 -0.591623 0.794298
-0.0556641 0.249023 0.888283 0.132863 -0.10349 0.985717
-0.0498047 0.249023 0.887424 0.127807 -0.182362 0.974889
-0.0439453 0.249023 0.887053 0.13341 -0.219664 0.966411
-0.0380859 0.249023 0.885923 0.129551 -0.324989 0.936802
-0.0304098 0.249023 0.883789 0.236623 -0.372987 0.897157
-0.0322266 0.249023 0.88448 0.208354 -0.357063 0.910546
-0.0559784 0.225586 0.87793 -0.271022 -0.528756 0.804341
-0.0615234 0.230416 0.87793 -0.299382 -0.653655 0.695059
-0.0556641 0.225586 0.878104 -0.257923 -0.528659 0.8087
-0.0498047 0.225586 0.879965 -0.0847978 -0.551986 0.829531
-0.0439453 0.225586 0.880363 0.105265 -0.562072 0.820362
-0.0380859 0.225586 0.879542 0.0865058 -0.550747 0.830178
-0.0313864 0.225586 0.87793 0.290871 -0.529952 0.796583
-0.0322266 0.225586 0.878169 0.289142 -0.534064 0.794463
-0.0263672 0.226797 0.87793 0.37692 -0.327437 0.866439
-0.0205078 0.23039 0.87793 0.122648 -0.235675 0.964062
0.00292969 0.249023 0.876642 0.131115 -0.374597 0.91787
0.00878906 0.249023 0.876251 0.131452 -0.380656 0.915326
0.0146484 0.249023 0.874995 0.0925121 -0.421913 0.901904
0.0205078 0.249023 0.873462 0.0983209 -0.519156 0.849006
0.029054 0.249023 0.87207 0.0919299 -0.511472 0.854368
0.0263672 0.249023 0.872847 0.0957106 -0.509076 0.855383
0.0322266 0.250301 0.87207 0.100404 -0.445814 0.889477
0.0380859 0.250717 0.87207 -0.0345636 -0.460028 0.887231
0.0439453 0.25081 0.87207 0.0574018 -0.515945 0.854696
0.0498047 0.251436 0.87207 0.102632 -0.466811 0.878381
0.0556641 0.252489 0.87207 0.223424 -0.394491 0.891324
0.0615234 0.254848 0.87207 0.163891 -0.42864 0.888486
-0.120117 0.247322 0.87793 -0.403757 -0.755688 0.515671
-0.113779 0.243164 0.87793 -0.436653 -0.735052 0.518684
-0.114258 0.243436 0.87793 -0.436795 -0.740216 0.511166
-0.108398 0.243164 0.882612 -0.205945 -0.700141 0.683659
-0.0263672 0.243164 0.882326 0.195066 -0.0726508 0.978096
-0.0205078 0.243164 0.881178 0.116134 -0.129717 0.984727
-0.0146484 0.243164 0.879216 0.143772 -0.188451 0.971502
-0.00603187 0.243164 0.87793 0.170653 -0.210194 0.962651
-0.00878906 0.243164 0.878846 0.151871 -0.160071 0.975352
-0.108398 0.240711 0.87793 -0.241779 -0.841386 0.483335
-0.102539 0.23941 0.87793 -0.230113 -0.839586 0.492081
-0.0934427 0.237305 0.87793 -0.174001 -0.824711 0.538122
-0.0966797 0.238014 0.87793 -0.179793 -0.828867 0.529769
-0.0908203 0.237305 0.878941 -0.165049 -0.790769 0.589443
-0.0849609 0.237305 0.881486 -0.138607 -0.676816 0.722986
-0.0791016 0.237305 0.883574 -0.127961 -0.694818 0.707711
-0.0322266 0.237305 0.883163 0.240111 -0.0542475 0.969229
-0.0263672 0.237305 0.882581 0.284563 0.0821126 0.955134
-0.0205078 0.237305 0.880513 0.230137 -0.0247653 0.972843
-0.00883508 0.237305 0.87793 0.251139 -0.204118 0.946184
-0.0146484 0.237305 0.879436 0.148349 -0.0952894 0.984334
-0.00878906 0.237388 0.87793 0.25151 -0.203878 0.946138
0.00878906 0.254883 0.8779 0.0584007 -0.419964 0.90566
0.0146484 0.254883 0.877269 0.0986627 -0.429261 0.897775
0.0205078 0.254883 0.876821 0.0362734 -0.415732 0.908763
0.0263672 0.254883 0.876254 0.0458741 -0.517546 0.854425
0.0322266 0.254883 0.875232 0.180963 -0.625808 0.758694
0.0380859 0.254883 0.874321 -0.0777354 -0.515427 0.853401
0.0439453 0.254883 0.874147 0.0227428 -0.501634 0.864781
0.0498047 0.254883 0.874078 0.201106 -0.48539 0.850854
0.0556641 0.254883 0.873524 0.232401 -0.422979 0.87583
0.0615827 0.254883 0.87207 0.164688 -0.428833 0.888245
0.0615234 0.254883 0.872087 0.16373 -0.428695 0.888489
0.0673828 0.258127 0.87207 0.201716 -0.562804 0.8016
-0.102539 0.258067 0.895508 0.0541073 -0.350848 0.934868
-0.0966797 0.259124 0.895508 -0.0163212 -0.451843 0.891948
-0.0908203 0.259691 0.895508 0.131954 -0.438942 0.888773
-0.0849609 0.2601 0.895508 0.187711 -0.405946 0.894412
-0.0732422 0.236745 0.883789 -0.0472959 -0.728344 0.683578
-0.0673828 0.236598 0.883789 -0.0142158 -0.704 0.710058
-0.0615234 0.235826 0.883789 0.0330362 -0.516085 0.8559
-0.0501616 0.231445 0.883789 0.117305 -0.138484 0.983393
-0.0556641 0.233651 0.883789 -0.0666685 -0.283139 0.956759
-0.0498047 0.231445 0.883856 0.12977 -0.118591 0.984427
-0.0439453 0.231445 0.884571 0.133677 0.0414435 0.990158
-0.0355198 0.231445 0.883789 0.14966 0.0539595 0.987264
-0.0380859 0.231445 0.884126 0.143316 0.0374857 0.988967
0.00292969 0.252236 0.87793 0.106752 -0.337175 0.93537
-0.0498047 0.231296 0.883789 0.120731 -0.127016 0.984526
-0.0439453 0.229754 0.883789 0.124315 -0.0911905 0.988044
-0.0380859 0.230711 0.883789 0.142049 -0.00456575 0.989849
-0.114258 0.252405 0.889648 -0.24835 -0.435417 0.865294
-0.105478 0.249023 0.889648 -0.082218 -0.597094 0.797947
-0.108398 0.249833 0.889648 -0.139728 -0.57077 0.809134
-0.102539 0.249023 0.89012 -0.0233533 -0.542376 0.839811
-0.0966797 0.249023 0.890925 0.190207 -0.522806 0.83096
-0.0908203 0.249023 0.890001 0.167107 -0.430516 0.886979
-0.0849609 0.249023 0.890078 0.111403 -0.243432 0.963499
-0.0791016 0.249023 0.890136 0.143901 -0.00573739 0.989575
-0.0732422 0.250792 0.889648 0.0869013 0.0149995 0.996104
-0.0732422 0.249023 0.890254 0.066766 0.149803 0.986459
-0.0673828 0.250134 0.889648 0.0415257 0.214491 0.975843
-0.0673828 0.249023 0.890082 0.0134497 0.221324 0.975108
-0.0594153 0.249023 0.889648 0.130228 0.0135245 0.991392
-0.0615234 0.250473 0.889648 0.0502007 0.102698 0.993445
-0.0615234 0.249023 0.890423 0.135473 0.0837331 0.987236
-0.114258 0.247724 0.883789 -0.383428 -0.672628 0.632894
-0.105879 0.243164 0.883789 -0.198755 -0.67392 0.711568
-0.108398 0.243953 0.883789 -0.191181 -0.681301 0.706597
-0.102539 0.243164 0.884777 -0.196511 -0.650548 0.733602
-0.0966797 0.243164 0.88629 0.0406152 -0.494534 0.868209
-0.0908203 0.243164 0.887232 -0.0686176 -0.240289 0.968273
-0.0849609 0.243164 0.888236 -0.0232222 -0.0155395 0.99961
-0.0791016 0.243164 0.888983 0.0438094 0.0193909 0.998852
-0.0556641 0.243164 0.888071 0.23628 0.0481103 0.970493
-0.0498047 0.243164 0.886972 0.231888 -0.0471733 0.971598
-0.0439453 0.243164 0.886098 0.170089 -0.156412 0.972936
-0.0380859 0.243164 0.885667 0.145874 -0.100887 0.984146
-0.0295749 0.243164 0.883789 0.280062 -0.0659845 0.957712
-0.0322266 0.243164 0.885111 0.243118 -0.0498759 0.968714
-0.102539 0.242411 0.883789 -0.197803 -0.698279 0.687953
-0.0966797 0.241582 0.883789 -0.0879808 -0.672597 0.734761
-0.0908203 0.240343 0.883789 -0.10578 -0.673066 0.731979
-0.0849609 0.238989 0.883789 -0.115305 -0.686876 0.71757
-0.0780036 0.237305 0.883789 -0.109033 -0.70789 0.697856
-0.0791016 0.237531 0.883789 -0.132399 -0.696027 0.705703
-0.0732422 0.237305 0.8845 -0.0501243 -0.701176 0.711224
-0.0673828 0.237305 0.884588 0.0031637 -0.659791 0.751443
-0.0615234 0.237305 0.884816 0.124875 -0.477482 0.869723
-0.0556641 0.237305 0.885425 0.124709 -0.194542 0.972934
-0.0498047 0.237305 0.886109 0.362068 -0.0646453 0.929907
-0.0439453 0.237305 0.885411 0.126575 -0.0912516 0.987751
-0.03411 0.237305 0.883789 0.16588 -0.122062 0.978563
-0.0380859 0.237305 0.8848 0.116164 -0.104167 0.987753
-0.0322266 0.238716 0.883789 0.263214 -0.0316774 0.964217
0.00864244 0.254883 0.87793 0.0590964 -0.418036 0.906506
0.00292969 0.254883 0.879078 0.0532518 -0.337545 0.939802
0.00878906 0.254978 0.87793 0.0566544 -0.421707 0.90496
0.0146484 0.256656 0.87793 0.117926 -0.437117 0.89164
0.0205078 0.257464 0.87793 0.0315844 -0.434521 0.900108
0.0263672 0.258164 0.87793 -0.00861457 -0.412364 0.910978
0.0322266 0.258834 0.87793 0.0195697 -0.476321 0.879054
0.0498047 0.260602 0.87793 0.134382 -0.592537 0.794255
-0.0732422 0.242229 0.889648 0.0350629 -0.0424985 0.998481
-0.0673828 0.241787 0.889648 0.0270867 -0.0821627 0.996251
-0.0615234 0.24241 0.889648 0.180923 -0.0659786 0.981282
-0.102539 0.24834 0.889648 -0.039239 -0.536499 0.842988
-0.0966797 0.246606 0.889648 0.213156 -0.377793 0.90102
-0.0908203 0.24774 0.889648 0.125907 -0.323556 0.937795
-0.0849609 0.24631 0.889648 0.011326 -0.0711678 0.9974
-0.0770608 0.243164 0.889648 0.0587819 -0.00593121 0.998253
-0.0791016 0.245049 0.889648 0.0227411 0.0353301 0.999117
-0.0732422 0.243164 0.890069 0.0439242 -0.0257502 0.998703
-0.0673828 0.243164 0.890176 0.0134941 -0.0632218 0.997908
-0.0603448 0.243164 0.889648 0.193825 -0.0319568 0.980515
-0.0615234 0.243164 0.889904 0.190115 -0.0556537 0.980183
-0.46582 0.290039 0.817136 0.426169 0.0794593 -0.901147
-0.0146484 0.290039 0.696274 -0.154302 -0.575246 -0.803295
-0.00878906 0.290039 0.695051 -0.00446727 -0.506038 -0.8625
-0.00292969 0.290039 0.695176 -0.0607329 -0.478907 -0.875762
-0.0146484 0.290022 0.696289 -0.154548 -0.576019 -0.802693
-0.00878906 0.288466 0.696289 -0.0256198 -0.558027 -0.829427
-0.00878906 0.28418 0.700021 -0.137488 -0.606252 -0.783297
-0.00292969 0.28818 0.696289 -0.0755909 -0.499094 -0.863244
-0.00292969 0.28418 0.698884 -0.15927 -0.485551 -0.859577
-0.0146484 0.27832 0.707403 -0.298663 -0.531458 -0.792687
-0.00878906 0.281793 0.702148 -0.238585 -0.610292 -0.755395
-0.00878906 0.27832 0.705254 -0.337601 -0.569066 -0.749792
-0.00097096 0.27832 0.702148 -0.270867 -0.489664 -0.82877
-0.00292969 0.279553 0.702148 -0.275545 -0.497475 -0.822553
-0.00292969 0.27832 0.702986 -0.294465 -0.516503 -0.804061
-0.46304 0.290039 0.819336 0.468949 0.415434 -0.779424
-0.459961 0.290039 0.820654 0.650825 0.650825 -0.390966
-0.0439453 0.260742 0.713443 0.0631296 0.101689 -0.992811
-0.0205078 0.272461 0.71355 -0.200343 -0.648236 -0.734611
-0.0146484 0.277271 0.708008 -0.272151 -0.53614 -0.799054
-0.0146484 0.272461 0.711433 -0.160881 -0.711836 -0.683672
-0.00878906 0.274642 0.708008 -0.242704 -0.695052 -0.676755
-0.00878906 0.272461 0.710033 -0.134911 -0.780997 -0.609789
-0.00126004 0.272461 0.708008 -0.379387 -0.709732 -0.593587
-0.00292969 0.273482 0.708008 -0.38783 -0.704825 -0.593978
-0.00292969 0.272461 0.709461 -0.404632 -0.736334 -0.542297
-0.0263672 0.294257 0.696289 -0.223545 -0.730175 -0.645657
-0.0147153 0.290039 0.696289 -0.15469 -0.57615 -0.802572
-0.0205078 0.291602 0.696289 -0.125471 -0.644989 -0.753821
-0.0205078 0.290039 0.698575 -0.235988 -0.745297 -0.623572
-0.0205078 0.288238 0.702148 -0.357 -0.759267 -0.544119
-0.0205078 0.28418 0.707115 -0.417142 -0.619937 -0.664582
-0.0136899 0.28418 0.702148 -0.279763 -0.693231 -0.664201
-0.0146484 0.284594 0.702148 -0.292636 -0.700677 -0.650704
-0.0146484 0.28418 0.702648 -0.301939 -0.698936 -0.648321
-0.0673828 0.266602 0.719615 -0.281395 0.2374 -0.929762
-0.0615234 0.266602 0.717409 -0.18098 0.177641 -0.967311
-0.0556641 0.266602 0.716449 -0.209745 0.112831 -0.971224
-0.0498047 0.266602 0.715181 -0.16373 0.110145 -0.980337
-0.0439453 0.266602 0.714262 0.0291742 0.0942486 -0.995121
-0.0380859 0.266602 0.714366 0.125793 -0.0111973 -0.991993
-0.0322266 0.266602 0.715337 0.125889 -0.211122 -0.969319
-0.0263672 0.266602 0.716368 0.0818079 -0.37523 -0.923315
-0.0205078 0.272019 0.713867 -0.185889 -0.654622 -0.732745
-0.0205078 0.266602 0.717025 0.0680993 -0.529536 -0.845549
-0.0146484 0.270595 0.713867 -0.0930687 -0.795705 -0.598491
-0.0146484 0.266602 0.717898 0.0552395 -0.666306 -0.74363
-0.00878906 0.269864 0.713867 -0.0488255 -0.862181 -0.504242
-0.00878906 0.266602 0.718283 0.0664403 -0.792039 -0.606844
0.00271463 0.266602 0.713867 -0.462806 -0.759856 -0.456541
-0.00292969 0.269536 0.713867 -0.466499 -0.745707 -0.475709
-0.00292969 0.266602 0.719244 -0.329735 -0.86346 -0.381721
-0.0439453 0.27832 0.713822 -0.0860415 -0.25848 -0.962177
-0.0380859 0.27832 0.713238 -0.134713 -0.293425 -0.946443
-0.0322266 0.27832 0.712474 -0.120214 -0.2939 -0.948246
-0.0263672 0.27832 0.711715 -0.289423 -0.32257 -0.901212
-0.0158192 0.27832 0.708008 -0.3105 -0.5038 -0.806086
-0.0205078 0.282641 0.708008 -0.402854 -0.548327 -0.732834
-0.0205078 0.27832 0.709994 -0.3406 -0.402359 -0.849764
-0.0732422 0.260742 0.7182 -0.201939 0.481603 -0.852807
-0.0673828 0.260742 0.716725 -0.240438 0.410921 -0.879394
-0.0615234 0.260742 0.715532 -0.0969188 0.36463 -0.926095
-0.0556641 0.260742 0.714875 -0.125335 0.299413 -0.945856
-0.0493492 0.260742 0.713867 -0.0827223 0.177689 -0.980604
-0.0498047 0.260742 0.713899 -0.0943174 0.187216 -0.97778
-0.0383999 0.260742 0.713867 0.223731 0.0409341 -0.973791
-0.0439453 0.263716 0.713867 0.0380615 0.0901237 -0.995203
-0.0380859 0.260742 0.713892 0.233004 0.0371432 -0.971766
-0.0322266 0.260742 0.715494 0.292829 -0.0589438 -0.954346
-0.0263672 0.260742 0.717557 0.188392 -0.145061 -0.971322
-0.0205078 0.260742 0.718777 0.193902 -0.199139 -0.960597
-0.0615234 0.272461 0.71851 -0.257666 0.0996647 -0.96108
-0.0556641 0.272461 0.716977 -0.276284 0.0201372 -0.960865
-0.0498047 0.272461 0.715403 -0.161524 -0.0419907 -0.985975
-0.0439453 0.277993 0.713867 -0.0824853 -0.250191 -0.964676
-0.0439453 0.272461 0.714527 -0.0137098 -0.0903616 -0.995815
-0.0380859 0.275699 0.713867 -0.132682 -0.264371 -0.955251
-0.0380859 0.272461 0.714532 -0.0477493 -0.205943 -0.977398
-0.0322266 0.274281 0.713867 -0.0999078 -0.334151 -0.937209
-0.0322266 0.272461 0.714467 -0.0586539 -0.35324 -0.933692
-0.0250126 0.272461 0.713867 -0.128091 -0.545396 -0.828333
-0.0263672 0.272644 0.713867 -0.113511 -0.500735 -0.858126
-0.0263672 0.272461 0.713946 -0.106268 -0.506067 -0.855923
-0.0380859 0.290039 0.707945 -0.207503 -0.282223 -0.936639
-0.0322266 0.290039 0.706216 -0.292736 -0.389686 -0.873184
-0.0229942 0.290039 0.702148 -0.359781 -0.798364 -0.48288
-0.0263672 0.29194 0.702148 -0.527332 -0.768509 -0.362373
-0.0263672 0.290039 0.704898 -0.544513 -0.668518 -0.506547
-0.0439453 0.28418 0.712083 -0.187464 -0.438485 -0.87897
-0.0380859 0.289908 0.708008 -0.209006 -0.289251 -0.934158
-0.0380859 0.28418 0.711078 -0.184587 -0.567728 -0.802255
-0.0322266 0.286706 0.708008 -0.098029 -0.496537 -0.862462
-0.0322266 0.28418 0.709771 -0.0912515 -0.605357 -0.790706
-0.0237063 0.28418 0.708008 -0.349084 -0.59071 -0.727463
-0.0263672 0.285235 0.708008 -0.289894 -0.602772 -0.743389
-0.0263672 0.28418 0.708766 -0.279186 -0.576119 -0.768207
-0.0615234 0.27832 0.719123 -0.283878 -0.0210983 -0.958628
-0.0556641 0.27832 0.717323 -0.354915 -0.0373815 -0.934151
-0.0441314 0.27832 0.713867 -0.0905937 -0.256001 -0.962422
-0.0498047 0.27832 0.715104 -0.226713 -0.152882 -0.961888
-0.0849609 0.266602 0.725032 -0.356312 0.256832 -0.898376
-0.0791016 0.266602 0.722313 -0.182689 0.283444 -0.941427
-0.0677001 0.266602 0.719727 -0.276696 0.239022 -0.930756
-0.0732422 0.266602 0.721267 -0.25161 0.27559 -0.927762
-0.0673828 0.26722 0.719727 -0.285185 0.225177 -0.931646
-0.0849609 0.260742 0.722605 -0.399592 0.398561 -0.825515
-0.0790175 0.260742 0.719727 -0.243525 0.468009 -0.849508
-0.0791016 0.260742 0.719751 -0.245054 0.467009 -0.849618
-0.0732422 0.26384 0.719727 -0.228722 0.401174 -0.886987
-0.0160011 0.260742 0.719727 0.252495 -0.248953 -0.935023
-0.0146484 0.26174 0.719727 0.250752 -0.347665 -0.903467
-0.0146484 0.260742 0.720002 0.274156 -0.275185 -0.921472
-0.00878906 0.264941 0.719727 0.151509 -0.745284 -0.649305
-0.00878906 0.260742 0.721937 0.415987 -0.413515 -0.809914
-0.00292969 0.266343 0.719727 -0.305011 -0.872885 -0.380842
-0.00292969 0.260742 0.725463 0.102396 -0.567963 -0.81666
-0.0849609 0.272461 0.72521 -0.298843 -0.0827577 -0.950707
-0.0791016 0.272461 0.722872 -0.141582 -0.0389116 -0.989161
-0.0732422 0.272461 0.72221 -0.287742 0.0161807 -0.957571
-0.0647163 0.272461 0.719727 -0.265003 0.126494 -0.955914
-0.0673828 0.272461 0.72067 -0.271423 0.091048 -0.958144
-0.0498047 0.290039 0.711689 -0.337947 -0.353204 -0.872376
-0.0383149 0.290039 0.708008 -0.207699 -0.286328 -0.935349
-0.0439453 0.295356 0.708008 -0.218349 -0.228216 -0.94881
-0.0439453 0.290039 0.709578 -0.274869 -0.361931 -0.89076
-0.0673828 0.28418 0.719079 -0.145651 -0.357602 -0.922446
-0.0615234 0.28418 0.718032 -0.229073 -0.301821 -0.925435
-0.0556641 0.28418 0.716408 -0.387202 -0.265993 -0.882793
-0.0497003 0.28418 0.713867 -0.302005 -0.32722 -0.895388
-0.0498047 0.284263 0.713867 -0.305006 -0.327161 -0.894392
-0.0498047 0.28418 0.713898 -0.304344 -0.326061 -0.895019
-0.0849609 0.27832 0.724042 -0.233013 -0.186498 -0.954423
-0.0791016 0.27832 0.722602 -0.135548 -0.167347 -0.976535
-0.0732422 0.27832 0.721703 -0.20051 -0.112777 -0.973179
-0.0637983 0.27832 0.719727 -0.258877 -0.021338 -0.965675
-0.0673828 0.282107 0.719727 -0.166883 -0.265484 -0.949562
-0.0673828 0.27832 0.720618 -0.215648 -0.0487049 -0.975256
-0.0859054 0.266602 0.725586 -0.376489 0.25236 -0.891387
-0.0908203 0.266602 0.72848 -0.54442 0.233324 -0.805709
-0.085549 0.272461 0.725586 -0.321972 -0.0877211 -0.942677
-0.0908203 0.272461 0.728881 -0.561441 -0.086607 -0.822972
-0.0893174 0.260742 0.725586 -0.5225 0.296651 -0.79937
-0.0908203 0.260742 0.726723 -0.550575 0.267948 -0.790614
-0.00221527 0.260742 0.725586 0.0362767 -0.586401 -0.809208
-0.225586 0.290039 0.754513 -0.190927 -0.689958 -0.698216
-0.219727 0.293953 0.749023 -0.178636 -0.639207 -0.747999
-0.219727 0.290039 0.752607 -0.157988 -0.694714 -0.701721
-0.213867 0.292242 0.749023 0.016291 -0.690554 -0.723097
-0.213867 0.290039 0.751141 0.0307031 -0.703441 -0.710091
-0.208008 0.291804 0.749023 0.187547 -0.692956 -0.696159
-0.208008 0.290039 0.750827 0.179877 -0.695111 -0.696036
-0.202148 0.2937 0.749023 0.315767 -0.696381 -0.644473
-0.202148 0.290039 0.752661 0.355958 -0.653053 -0.668443
-0.196289 0.295684 0.749023 0.454133 -0.642581 -0.617132
-0.225586 0.28963 0.754883 -0.189322 -0.694666 -0.693972
-0.225586 0.28418 0.760406 -0.15803 -0.745113 -0.647946
-0.219727 0.287826 0.754883 -0.156662 -0.713822 -0.68258
-0.219727 0.28418 0.758971 -0.203836 -0.726 -0.656791
-0.213867 0.286296 0.754883 -0.0172565 -0.680092 -0.732924
-0.213867 0.28418 0.75695 -0.0497827 -0.681691 -0.729945
-0.208008 0.285786 0.754883 0.188856 -0.636654 -0.747667
-0.208008 0.28418 0.756254 0.183973 -0.633994 -0.751136
-0.202148 0.287557 0.754883 0.33095 -0.598515 -0.729556
-0.202148 0.28418 0.757679 0.299189 -0.591646 -0.748626
-0.196289 0.28418 0.759512 0.304505 -0.662246 -0.684621
-0.0849609 0.290039 0.719321 -0.145462 -0.431346 -0.890383
-0.0791016 0.290039 0.718433 -0.113261 -0.423319 -0.898873
-0.0732422 0.290039 0.71779 -0.194134 -0.408307 -0.891963
-0.0673828 0.290039 0.716589 -0.137514 -0.423733 -0.895288
-0.0615234 0.293885 0.713867 -0.229616 -0.429697 -0.873291
-0.0615234 0.290039 0.715507 -0.202202 -0.425735 -0.881966
-0.0548161 0.290039 0.713867 -0.353214 -0.373388 -0.8578
-0.0556641 0.290824 0.713867 -0.340667 -0.387495 -0.856618
-0.0556641 0.290039 0.714265 -0.352454 -0.385596 -0.852697
-0.225586 0.283889 0.760742 -0.152694 -0.749318 -0.644365
-0.219727 0.282801 0.760742 -0.219493 -0.762933 -0.608076
-0.213867 0.28125 0.760742 -0.110464 -0.751608 -0.650294
-0.213867 0.27832 0.764936 -0.200356 -0.741444 -0.640405
-0.208008 0.280012 0.760742 0.130523 -0.690772 -0.711195
-0.208008 0.27832 0.76253 0.103642 -0.70618 -0.700406
-0.202148 0.280673 0.760742 0.36912 -0.682633 -0.630684
-0.202148 0.27832 0.76292 0.418592 -0.641236 -0.643115
-0.196289 0.283003 0.760742 0.312708 -0.713636 -0.626847
-0.196289 0.27832 0.76636 0.270464 -0.618263 -0.737971
-0.0947679 0.266602 0.731445 -0.601922 0.22725 -0.765537
-0.0966797 0.266602 0.733213 -0.606656 0.163467 -0.777977
-0.0966797 0.27832 0.730054 -0.394296 -0.347717 -0.850661
-0.0877906 0.27832 0.725586 -0.338571 -0.191261 -0.921298
-0.0908203 0.281523 0.725586 -0.365407 -0.379388 -0.850025
-0.0908203 0.27832 0.727412 -0.492372 -0.260113 -0.830609
-0.0908203 0.28418 0.723932 -0.241536 -0.426509 -0.871637
-0.0849609 0.289274 0.719727 -0.13961 -0.441451 -0.886358
-0.0849609 0.28418 0.722363 -0.159707 -0.319186 -0.934138
-0.0791016 0.287857 0.719727 -0.147366 -0.415968 -0.89736
-0.0791016 0.28418 0.721532 -0.165146 -0.31764 -0.933719
-0.0709196 0.28418 0.719727 -0.164115 -0.371828 -0.913679
-0.0732422 0.285259 0.719727 -0.188097 -0.360307 -0.913673
-0.0732422 0.28418 0.720133 -0.181927 -0.358675 -0.915563
-0.0955818 0.272461 0.731445 -0.509106 -0.165485 -0.844645
-0.0966797 0.27441 0.731445 -0.421672 -0.246217 -0.872679
-0.0966797 0.272461 0.732128 -0.464069 -0.19548 -0.863961
-0.0955864 0.260742 0.731445 -0.640045 0.225627 -0.734462
-0.0966797 0.260742 0.732446 -0.659889 0.22142 -0.717997
-0.213867 0.276874 0.766602 -0.21004 -0.72803 -0.652576
-0.208008 0.274484 0.766602 0.0725478 -0.737002 -0.671985
-0.208008 0.272461 0.768939 0.0581282 -0.75152 -0.657144
-0.202148 0.274924 0.766602 0.367473 -0.635593 -0.678958
-0.202148 0.272461 0.769286 0.309444 -0.686812 -0.657673
-0.196289 0.27805 0.766602 0.267931 -0.613284 -0.743031
-0.196289 0.272461 0.771232 0.229489 -0.721794 -0.652954
-0.208008 0.270191 0.772461 0.00821462 -0.807264 -0.590133
-0.208008 0.266602 0.777794 0.0421455 -0.837183 -0.545297
-0.202148 0.270222 0.772461 0.340857 -0.767612 -0.54276
-0.202148 0.266602 0.778314 0.232589 -0.774811 -0.587853
-0.196289 0.271593 0.772461 0.203326 -0.760084 -0.617196
-0.208008 0.266064 0.77832 0.0554338 -0.818395 -0.571976
-0.202148 0.266595 0.77832 0.232294 -0.77462 -0.58822
-0.19043 0.260742 0.782883 -0.337483 -0.567484 -0.751044
-0.249023 0.294468 0.754883 -0.066545 -0.764275 -0.641448
-0.249023 0.290039 0.760387 -0.115113 -0.784454 -0.60941
-0.243164 0.292852 0.754883 -0.0535352 -0.702793 -0.709377
-0.243164 0.290039 0.758056 -0.152809 -0.689303 -0.708174
-0.237305 0.292124 0.754883 -0.164664 -0.668354 -0.725389
-0.237305 0.290039 0.756662 -0.144804 -0.63708 -0.757073
-0.229033 0.290039 0.754883 -0.177289 -0.684767 -0.706869
-0.231445 0.290347 0.754883 -0.19317 -0.674012 -0.713017
-0.231445 0.290039 0.755167 -0.191096 -0.677083 -0.710663
-0.197351 0.290039 0.754883 0.334668 -0.590161 -0.734648
-0.196289 0.29058 0.754883 0.333356 -0.58861 -0.736486
-0.196289 0.290039 0.75535 0.323601 -0.572235 -0.753545
-0.19043 0.29383 0.754883 0.144551 -0.594203 -0.791219
-0.19043 0.290039 0.75763 0.0840988 -0.517981 -0.851248
-0.120117 0.290039 0.723263 -0.0761984 -0.648764 -0.757165
-0.114258 0.292721 0.719727 0.559551 -0.674645 -0.48141
-0.114258 0.290039 0.722989 0.535924 -0.56439 -0.627893
-0.102539 0.290039 0.725187 -0.363586 -0.362183 -0.858271
-0.0966797 0.290039 0.722428 -0.265714 -0.3597 -0.894434
-0.0864898 0.290039 0.719727 -0.165765 -0.424342 -0.8902
-0.0908203 0.29319 0.719727 -0.233546 -0.36697 -0.900438
-0.0908203 0.290039 0.720887 -0.207196 -0.389847 -0.897268
-0.100342 0.266602 0.737305 -0.683852 0.0626384 -0.726927
-0.102539 0.266602 0.739936 -0.767635 0.0399371 -0.639642
-0.249023 0.289694 0.760742 -0.117341 -0.785232 -0.607982
-0.243164 0.287884 0.760742 -0.277341 -0.709952 -0.647341
-0.243164 0.28418 0.76503 -0.283101 -0.761945 -0.582489
-0.237305 0.286467 0.760742 -0.122135 -0.696089 -0.707491
-0.237305 0.28418 0.763477 -0.167363 -0.754626 -0.634452
-0.227993 0.28418 0.760742 -0.137965 -0.729788 -0.669608
-0.231445 0.284639 0.760742 -0.111376 -0.713382 -0.691868
-0.231445 0.28418 0.7612 -0.107464 -0.718416 -0.687263
-0.193787 0.28418 0.760742 0.232956 -0.714253 -0.65998
-0.19043 0.285998 0.760742 0.127997 -0.702011 -0.700569
-0.19043 0.28418 0.762732 0.123914 -0.723817 -0.678774
-0.100584 0.260742 0.737305 -0.721263 0.191261 -0.665732
-0.102539 0.260742 0.73992 -0.781915 0.152552 -0.604431
-0.131836 0.27832 0.737261 -0.00125785 -0.704855 -0.70935
-0.125977 0.284134 0.731445 -0.0466219 -0.815253 -0.577225
-0.0989903 0.27832 0.731445 -0.412842 -0.331703 -0.848254
-0.102539 0.281264 0.731445 -0.328576 -0.534033 -0.779004
-0.102539 0.27832 0.733788 -0.471455 -0.415205 -0.778033
-0.125977 0.28418 0.731399 -0.0497166 -0.815437 -0.576707
-0.120117 0.287675 0.725586 0.125108 -0.773287 -0.62159
-0.114258 0.288365 0.725586 0.349378 -0.658168 -0.666896
-0.102539 0.289325 0.725586 -0.35834 -0.392924 -0.846879
-0.102539 0.28418 0.729013 -0.297466 -0.607123 -0.736828
-0.0951824 0.28418 0.725586 -0.301401 -0.546019 -0.781678
-0.0966797 0.285037 0.725586 -0.302708 -0.538768 -0.786192
-0.0966797 0.28418 0.726278 -0.315764 -0.571444 -0.757459
-0.131836 0.278278 0.737305 0.00128922 -0.706591 -0.707621
-0.108398 0.272461 0.742922 -0.602797 -0.367503 -0.708222
-0.101673 0.272461 0.737305 -0.653089 -0.239973 -0.718253
-0.102539 0.273759 0.737305 -0.652309 -0.304066 -0.694288
-0.102539 0.272461 0.738228 -0.682695 -0.247072 -0.687664
-0.243164 0.283317 0.766602 -0.278821 -0.800264 -0.530883
-0.237305 0.281953 0.766602 -0.220479 -0.778956 -0.587041
-0.231445 0.279975 0.766602 -0.0757709 -0.796241 -0.600216
-0.231445 0.27832 0.768797 -0.0730352 -0.80459 -0.589322
-0.225586 0.278874 0.766602 -0.0832929 -0.795113 -0.600714
-0.225586 0.27832 0.767342 -0.0898106 -0.781628 -0.617245
-0.219039 0.27832 0.766602 -0.249908 -0.741117 -0.623131
-0.219727 0.278491 0.766602 -0.2642 -0.742414 -0.615646
-0.219727 0.27832 0.766811 -0.266014 -0.738754 -0.619256
-0.19576 0.27832 0.766602 0.237358 -0.618103 -0.749407
-0.19043 0.280648 0.766602 -0.0276286 -0.579323 -0.81463
-0.19043 0.27832 0.76851 -0.168535 -0.479074 -0.861443
-0.231445 0.276125 0.772461 -0.111463 -0.866532 -0.486517
-0.225586 0.275004 0.772461 -0.212113 -0.792796 -0.571387
-0.225586 0.272461 0.777119 -0.296662 -0.797445 -0.525427
-0.219727 0.273827 0.772461 -0.236385 -0.754365 -0.612418
-0.219727 0.272461 0.774183 -0.222764 -0.787404 -0.574779
-0.213409 0.272461 0.772461 -0.208735 -0.779699 -0.590338
-0.213867 0.272658 0.772461 -0.221987 -0.775696 -0.590777
-0.213867 0.272461 0.772724 -0.221971 -0.7797 -0.585488
-0.193785 0.272461 0.772461 -0.0486437 -0.739408 -0.671498
-0.186654 0.272461 0.772461 -0.444314 -0.584575 -0.678864
-0.19043 0.273989 0.772461 -0.31961 -0.608615 -0.726249
-0.19043 0.272461 0.774141 -0.342644 -0.669465 -0.659099
-0.225586 0.271726 0.77832 -0.297223 -0.791425 -0.53414
-0.219727 0.269671 0.77832 -0.225993 -0.797078 -0.559994
-0.219727 0.266602 0.782758 -0.328732 -0.716928 -0.614776
-0.210812 0.266602 0.77832 -0.0516565 -0.806405 -0.589103
-0.213867 0.267105 0.77832 -0.160879 -0.782208 -0.601887
-0.213867 0.266602 0.778897 -0.151958 -0.761301 -0.63034
-0.202127 0.266602 0.77832 0.231449 -0.774445 -0.588784
-0.196289 0.26808 0.77832 -0.0221785 -0.649468 -0.760066
-0.196289 0.266602 0.779857 -0.121653 -0.602033 -0.789149
-0.188865 0.266602 0.77832 -0.392192 -0.508693 -0.766431
-0.19043 0.267689 0.77832 -0.391964 -0.519122 -0.759523
-0.19043 0.266602 0.778983 -0.386302 -0.49558 -0.777928
-0.219727 0.265352 0.78418 -0.354519 -0.711839 -0.606302
-0.213867 0.263006 0.78418 -0.126407 -0.777329 -0.616264
-0.213867 0.260742 0.788078 -0.148557 -0.850143 -0.505161
-0.208008 0.261398 0.78418 0.0543253 -0.792737 -0.607139
-0.208008 0.260742 0.785199 0.0370984 -0.815544 -0.577504
-0.202148 0.261304 0.78418 0.0600492 -0.73455 -0.675892
-0.202148 0.260742 0.784892 0.0425397 -0.748382 -0.661903
-0.193826 0.260742 0.78418 -0.327187 -0.548806 -0.76926
-0.196289 0.261866 0.78418 -0.312492 -0.596491 -0.739289
-0.196289 0.260742 0.785293 -0.352776 -0.602627 -0.715815
-0.105777 0.260742 0.743164 -0.739932 0.126261 -0.660726
-0.108398 0.260742 0.746319 -0.791867 0.078575 -0.605617
-0.106204 0.266602 0.743164 -0.703054 -0.0356754 -0.710241
-0.108398 0.272006 0.743164 -0.614206 -0.339087 -0.712581
-0.108398 0.266602 0.74525 -0.716579 -0.0542224 -0.695396
-0.143555 0.290039 0.731093 -0.10379 -0.567501 -0.816805
-0.137695 0.290039 0.730247 -0.133873 -0.510045 -0.849666
-0.131836 0.290039 0.729377 -0.415407 -0.481194 -0.771939
-0.124312 0.290039 0.725586 -0.280776 -0.516265 -0.809096
-0.125977 0.291792 0.725586 -0.386286 -0.425155 -0.818551
-0.125977 0.290039 0.726489 -0.371368 -0.505735 -0.778664
-0.110722 0.290039 0.725586 0.0463174 -0.458381 -0.887548
-0.104214 0.290039 0.725586 -0.317215 -0.366925 -0.874494
-0.108398 0.292282 0.725586 -0.206663 -0.478674 -0.853324
-0.108398 0.290039 0.726749 -0.262719 -0.428085 -0.864709
-0.143555 0.282836 0.737305 -0.164492 -0.656839 -0.73587
-0.143555 0.27832 0.741909 -0.182729 -0.673656 -0.716099
-0.131928 0.27832 0.737305 -0.00495106 -0.702636 -0.711533
-0.137695 0.281327 0.737305 -0.206606 -0.606596 -0.767695
-0.137695 0.27832 0.740261 -0.279093 -0.658266 -0.699137
-0.131279 0.27832 0.737305 0.0223895 -0.721441 -0.692114
-0.125977 0.278753 0.737305 0.216282 -0.797735 -0.562887
-0.125977 0.27832 0.737859 0.229389 -0.802087 -0.551396
-0.120117 0.280329 0.737305 0.111217 -0.788643 -0.60471
-0.120117 0.27832 0.740695 -0.00850953 -0.814922 -0.579508
-0.114258 0.28118 0.737305 -0.178145 -0.697725 -0.693861
-0.114258 0.27832 0.740464 -0.260765 -0.673866 -0.691307
-0.10737 0.27832 0.737305 -0.526993 -0.530942 -0.663611
-0.108398 0.279294 0.737305 -0.531461 -0.537529 -0.654685
-0.108398 0.27832 0.738148 -0.538193 -0.530484 -0.654931
-0.249505 0.290039 0.760742 -0.140736 -0.783809 -0.604844
-0.254883 0.29345 0.760742 -0.42851 -0.685318 -0.588828
-0.254883 0.290039 0.764695 -0.374409 -0.712776 -0.593101
-0.143555 0.276766 0.743164 -0.161073 -0.660237 -0.733582
-0.143555 0.272461 0.746668 -0.115846 -0.659833 -0.742428
-0.137695 0.275313 0.743164 -0.228802 -0.751395 -0.618914
-0.137695 0.272461 0.745746 -0.0217922 -0.773244 -0.633734
-0.131836 0.2741 0.743164 0.167691 -0.85638 -0.488358
-0.131836 0.272461 0.745871 0.208518 -0.873404 -0.440098
-0.125977 0.275157 0.743164 0.283341 -0.841281 -0.460395
-0.125977 0.272461 0.74902 0.164384 -0.882018 -0.441612
-0.120117 0.277022 0.743164 -0.0915922 -0.818069 -0.56778
-0.108735 0.272461 0.743164 -0.600942 -0.373793 -0.706504
-0.114258 0.276175 0.743164 -0.360358 -0.637202 -0.68126
-0.114258 0.272461 0.747874 -0.529966 -0.495925 -0.687891
-0.143555 0.28956 0.731445 -0.110535 -0.580186 -0.806948
-0.143555 0.28418 0.73595 -0.147301 -0.629174 -0.763179
-0.137695 0.288253 0.731445 -0.147725 -0.559897 -0.815287
-0.137695 0.28418 0.734767 -0.184909 -0.594074 -0.78287
-0.126086 0.28418 0.731445 -0.0532145 -0.81253 -0.580485
-0.131836 0.287021 0.731445 -0.361349 -0.58836 -0.723367
-0.131836 0.28418 0.733511 -0.255231 -0.64262 -0.722424
-0.125271 0.28418 0.731445 -0.0175158 -0.83394 -0.551577
-0.120117 0.284398 0.731445 0.194068 -0.864523 -0.463614
-0.120117 0.28418 0.731836 0.193976 -0.862313 -0.467749
-0.114258 0.285558 0.731445 0.0195265 -0.829726 -0.557829
-0.114258 0.28418 0.733878 -0.0804246 -0.808478 -0.583005
-0.106505 0.28418 0.731445 -0.381121 -0.612207 -0.692783
-0.108398 0.285323 0.731445 -0.396748 -0.634457 -0.663366
-0.108398 0.28418 0.73278 -0.427708 -0.630219 -0.647989
-0.254883 0.288973 0.766602 -0.335859 -0.73717 -0.586327
-0.246118 0.28418 0.766602 -0.258794 -0.789784 -0.556117
-0.249023 0.285288 0.766602 -0.174034 -0.808806 -0.561734
-0.249023 0.28418 0.76869 -0.195651 -0.856069 -0.478401
-0.249023 0.28259 0.772461 -0.252015 -0.882592 -0.396888
-0.243164 0.280945 0.772461 -0.368808 -0.806284 -0.462479
-0.243164 0.27832 0.776961 -0.334492 -0.815751 -0.471874
-0.237194 0.27832 0.772461 -0.261889 -0.837336 -0.479877
-0.237305 0.278366 0.772461 -0.263857 -0.836538 -0.480192
-0.237305 0.27832 0.772546 -0.263789 -0.837578 -0.478413
-0.243164 0.277503 0.77832 -0.29982 -0.817445 -0.491825
-0.237305 0.27511 0.77832 -0.28636 -0.839744 -0.461332
-0.237305 0.272461 0.782147 -0.253145 -0.795533 -0.550495
-0.22798 0.272461 0.77832 -0.247512 -0.805525 -0.538393
-0.231445 0.273299 0.77832 -0.173892 -0.841422 -0.511636
-0.231445 0.272461 0.779707 -0.191388 -0.823235 -0.534466
-0.237305 0.27118 0.78418 -0.24375 -0.79871 -0.550135
-0.231445 0.268987 0.78418 -0.222415 -0.778093 -0.587455
-0.231445 0.266602 0.787528 -0.254986 -0.792978 -0.553324
-0.223859 0.266602 0.78418 -0.289488 -0.756953 -0.585848
-0.225586 0.267108 0.78418 -0.276964 -0.760562 -0.587227
-0.225586 0.266602 0.784824 -0.277212 -0.758935 -0.589213
-0.111017 0.260742 0.749023 -0.801938 0.00409523 -0.597393
-0.114258 0.260742 0.75275 -0.741912 -0.038212 -0.669407
-0.231445 0.265655 0.790039 -0.300357 -0.831551 -0.467235
-0.225586 0.26337 0.790039 -0.243203 -0.825196 -0.509808
-0.217833 0.260742 0.790039 -0.260224 -0.822789 -0.505274
-0.219727 0.261297 0.790039 -0.324584 -0.803195 -0.499522
-0.219727 0.260742 0.790837 -0.317584 -0.790414 -0.523819
-0.143555 0.270256 0.749023 -0.106041 -0.713926 -0.692145
-0.143555 0.266602 0.754596 -0.0951774 -0.847926 -0.5215
-0.137695 0.26951 0.749023 0.158566 -0.793719 -0.587254
-0.137695 0.266602 0.753451 0.313915 -0.850596 -0.421834
-0.131836 0.270602 0.749023 0.335732 -0.848233 -0.409615
-0.125977 0.27246 0.749023 0.164254 -0.882011 -0.441675
-0.11218 0.266602 0.749023 -0.708168 -0.182803 -0.681968
-0.114258 0.270977 0.749023 -0.571628 -0.386384 -0.723843
-0.114258 0.266602 0.751128 -0.662585 -0.248573 -0.706535
-0.146619 0.27832 0.743164 -0.237942 -0.635123 -0.734849
-0.149414 0.279592 0.743164 -0.282003 -0.635433 -0.718818
-0.149414 0.27832 0.74427 -0.283594 -0.624775 -0.727482
-0.144384 0.290039 0.731445 -0.144243 -0.577599 -0.803475
-0.149414 0.293995 0.731445 -0.393227 -0.519699 -0.758476
-0.149414 0.290039 0.733751 -0.332564 -0.539543 -0.773495
-0.147063 0.28418 0.737305 -0.241438 -0.651309 -0.719378
-0.149414 0.285322 0.737305 -0.307846 -0.628288 -0.714482
-0.149414 0.28418 0.73837 -0.308869 -0.648895 -0.695367
-0.2562 0.290039 0.766602 -0.431417 -0.679668 -0.593238
-0.260742 0.294272 0.766602 -0.586211 -0.630051 -0.509306
-0.147059 0.272461 0.749023 -0.26692 -0.64893 -0.712491
-0.149414 0.273878 0.749023 -0.307325 -0.658381 -0.687086
-0.149414 0.272461 0.750527 -0.333144 -0.670985 -0.662415
-0.125972 0.272461 0.749023 0.163877 -0.881995 -0.441847
-0.115901 0.272461 0.749023 -0.498849 -0.521654 -0.692117
-0.120117 0.274191 0.749023 -0.294578 -0.7519 -0.589805
-0.120117 0.272461 0.751506 -0.417515 -0.634647 -0.650311
-0.251991 0.28418 0.772461 -0.287038 -0.886305 -0.363417
-0.254883 0.285485 0.772461 -0.336333 -0.870452 -0.359435
-0.254883 0.28418 0.775851 -0.339476 -0.870225 -0.357022
-0.254883 0.282845 0.77832 -0.353389 -0.833024 -0.425662
-0.245379 0.27832 0.77832 -0.331816 -0.780969 -0.529137
-0.249023 0.279803 0.77832 -0.330065 -0.801978 -0.497883
-0.249023 0.27832 0.780841 -0.375022 -0.784095 -0.494523
-0.249023 0.276593 0.78418 -0.40594 -0.801916 -0.438343
-0.240884 0.272461 0.78418 -0.283113 -0.786558 -0.548793
-0.243164 0.273338 0.78418 -0.288104 -0.80779 -0.514268
-0.243164 0.272461 0.785686 -0.315388 -0.801449 -0.508143
-0.143555 0.266412 0.754883 -0.0958836 -0.843435 -0.528606
-0.137695 0.265559 0.754883 0.371492 -0.791429 -0.485422
-0.137695 0.260742 0.759968 0.410039 -0.634172 -0.65551
-0.116648 0.260742 0.754883 -0.771974 -0.145522 -0.618773
-0.120117 0.260742 0.758766 -0.685941 -0.291826 -0.666575
-0.243164 0.270696 0.790039 -0.366827 -0.835888 -0.408324
-0.233609 0.266602 0.790039 -0.324808 -0.831779 -0.450159
-0.237305 0.268569 0.790039 -0.288424 -0.840002 -0.459573
-0.231445 0.264383 0.795898 -0.446923 -0.872381 -0.198017
-0.224445 0.260742 0.795898 -0.492358 -0.78971 -0.36598
-0.225586 0.261355 0.795898 -0.455031 -0.840748 -0.293411
-0.144085 0.266602 0.754883 -0.114354 -0.845274 -0.521954
-0.149414 0.268393 0.754883 -0.319645 -0.784482 -0.531427
-0.149414 0.266602 0.75731 -0.275707 -0.78153 -0.559639
-0.136113 0.266602 0.754883 0.319659 -0.853107 -0.412342
-0.131836 0.26829 0.754883 0.358122 -0.853655 -0.378182
-0.131836 0.266602 0.758014 0.282505 -0.76649 -0.576787
-0.125977 0.269944 0.754883 -0.216539 -0.759496 -0.613414
-0.125977 0.266602 0.759553 -0.520295 -0.521624 -0.676167
-0.119176 0.266602 0.754883 -0.613795 -0.344436 -0.710366
-0.120117 0.267913 0.754883 -0.575894 -0.397784 -0.714223
-0.120117 0.266602 0.755685 -0.59627 -0.359352 -0.717863
-0.161133 0.283467 0.749023 -0.551319 -0.578366 -0.601282
-0.161133 0.27832 0.753578 -0.40313 -0.690261 -0.600854
-0.154466 0.27832 0.749023 -0.532774 -0.603993 -0.592743
-0.155273 0.279005 0.749023 -0.550836 -0.613482 -0.56588
-0.155273 0.27832 0.749939 -0.572944 -0.599087 -0.559312
-0.161133 0.290039 0.742929 -0.513282 -0.581226 -0.631441
-0.153885 0.290039 0.737305 -0.450294 -0.540578 -0.710641
-0.155273 0.291321 0.737305 -0.458607 -0.540167 -0.705619
-0.155273 0.290039 0.738407 -0.470611 -0.550173 -0.689808
-0.161133 0.289794 0.743164 -0.517693 -0.581118 -0.627929
-0.161133 0.28418 0.748502 -0.565921 -0.563821 -0.601531
-0.15443 0.28418 0.743164 -0.445492 -0.590005 -0.673373
-0.155273 0.284885 0.743164 -0.463735 -0.582082 -0.66793
-0.155273 0.28418 0.743777 -0.462909 -0.584264 -0.666597
-0.161133 0.277303 0.754883 -0.414807 -0.67699 -0.607963
-0.161133 0.272461 0.75995 -0.512282 -0.560953 -0.650307
-0.154787 0.272461 0.754883 -0.547825 -0.601194 -0.581768
-0.155273 0.272979 0.754883 -0.577558 -0.576753 -0.577739
-0.155273 0.272461 0.755281 -0.56238 -0.581602 -0.587765
-0.266602 0.295257 0.772461 -0.570411 -0.715901 -0.402638
-0.259963 0.290039 0.772461 -0.622452 -0.693313 -0.363141
-0.260742 0.290857 0.772461 -0.637902 -0.675126 -0.370521
-0.260742 0.290039 0.774355 -0.626056 -0.698916 -0.345788
-0.256541 0.28418 0.77832 -0.418624 -0.824439 -0.38086
-0.260742 0.287826 0.77832 -0.614877 -0.707117 -0.34916
-0.260742 0.28418 0.783661 -0.53409 -0.698474 -0.476321
-0.260742 0.283865 0.78418 -0.518868 -0.702183 -0.487561
-0.253237 0.27832 0.78418 -0.367832 -0.821097 -0.436461
-0.254883 0.279072 0.78418 -0.35634 -0.821536 -0.445085
-0.254883 0.27832 0.785667 -0.351845 -0.82792 -0.436754
-0.254883 0.27672 0.790039 -0.359309 -0.840587 -0.405352
-0.246604 0.272461 0.790039 -0.416961 -0.818775 -0.394653
-0.249023 0.273992 0.790039 -0.435143 -0.801516 -0.41015
-0.249023 0.272461 0.79378 -0.421407 -0.832129 -0.360525
-0.155273 0.260742 0.76657 -0.302277 -0.706932 -0.639434
-0.149414 0.263483 0.760742 -0.256686 -0.711245 -0.654403
-0.149414 0.260742 0.76347 -0.191818 -0.749773 -0.633282
-0.142162 0.260742 0.760742 -0.0133004 -0.74183 -0.670456
-0.143555 0.260985 0.760742 -0.148936 -0.745111 -0.650098
-0.143555 0.260742 0.761055 -0.15452 -0.748778 -0.644558
-0.136267 0.260742 0.760742 0.356344 -0.636917 -0.683634
-0.131836 0.263559 0.760742 0.178718 -0.657932 -0.731564
-0.131836 0.260742 0.763245 0.110174 -0.599405 -0.792828
-0.122479 0.260742 0.760742 -0.680198 -0.353586 -0.642112
-0.125977 0.265292 0.760742 -0.558033 -0.483809 -0.674187
-0.125977 0.260742 0.763952 -0.600445 -0.392604 -0.696655
-0.249023 0.27152 0.795898 -0.397955 -0.842516 -0.363042
-0.243164 0.268555 0.795898 -0.386085 -0.876522 -0.287486
-0.243164 0.266602 0.799932 -0.258404 -0.9079 -0.330068
-0.237028 0.266602 0.795898 -0.296593 -0.928661 -0.222756
-0.237305 0.266727 0.795898 -0.293865 -0.927864 -0.229589
-0.237305 0.266602 0.796355 -0.285979 -0.931884 -0.223176
-0.243164 0.266003 0.801758 -0.18585 -0.931866 -0.311586
-0.237305 0.264787 0.801758 -0.164006 -0.96775 -0.191213
-0.231445 0.264177 0.801758 -0.491069 -0.856601 -0.158385
-0.22422 0.260742 0.801758 -0.584751 -0.802945 -0.11552
-0.225586 0.261855 0.801758 -0.50829 -0.850827 -0.133172
-0.161133 0.271465 0.760742 -0.514825 -0.571133 -0.639345
-0.161133 0.266602 0.764654 -0.465937 -0.576524 -0.67121
-0.154878 0.266602 0.760742 -0.372682 -0.688937 -0.62167
-0.155273 0.266807 0.760742 -0.386339 -0.682509 -0.620422
-0.155273 0.266602 0.760949 -0.383044 -0.681213 -0.62388
-0.161388 0.290039 0.743164 -0.518004 -0.583442 -0.625513
-0.166992 0.290039 0.747219 -0.490165 -0.533689 -0.68914
-0.172852 0.27832 0.759889 -0.404289 -0.618786 -0.673538
-0.163673 0.27832 0.754883 -0.346077 -0.714825 -0.607664
-0.166992 0.279659 0.754883 -0.250995 -0.706165 -0.662067
-0.166992 0.27832 0.756406 -0.235891 -0.739321 -0.630682
-0.162284 0.28418 0.749023 -0.531637 -0.563014 -0.632753
-0.166992 0.287012 0.749023 -0.362404 -0.582951 -0.727208
-0.166992 0.28418 0.750836 -0.30302 -0.527532 -0.793655
-0.172852 0.276843 0.760742 -0.3375 -0.631029 -0.698496
-0.172852 0.272461 0.76392 -0.236555 -0.632562 -0.7375
-0.163557 0.272461 0.760742 -0.419881 -0.602445 -0.678793
-0.166992 0.273755 0.760742 -0.267064 -0.669678 -0.692971
-0.166992 0.272461 0.761899 -0.273339 -0.631261 -0.725807
-0.272461 0.294389 0.77832 -0.314144 -0.852537 -0.417725
-0.263712 0.290039 0.77832 -0.523668 -0.75492 -0.3948
-0.266602 0.292004 0.77832 -0.577103 -0.704263 -0.413481
-0.266602 0.290039 0.781676 -0.547844 -0.735409 -0.398798
-0.261104 0.28418 0.78418 -0.527756 -0.691508 -0.493245
-0.266602 0.288691 0.78418 -0.569553 -0.703411 -0.425232
-0.257936 0.27832 0.790039 -0.405691 -0.825329 -0.392742
-0.260742 0.279955 0.790039 -0.414106 -0.812603 -0.410112
-0.260742 0.27832 0.794099 -0.411535 -0.849658 -0.329729
-0.260742 0.27763 0.795898 -0.422438 -0.856772 -0.295782
-0.250747 0.272461 0.795898 -0.396971 -0.834274 -0.382625
-0.254883 0.274314 0.795898 -0.401856 -0.83879 -0.367345
-0.254883 0.272461 0.799858 -0.445927 -0.832257 -0.32939
-0.155315 0.260742 0.766602 -0.30275 -0.706848 -0.639303
-0.161133 0.264727 0.766602 -0.45369 -0.605646 -0.653726
-0.161133 0.260742 0.770765 -0.420141 -0.674806 -0.606728
-0.169025 0.290039 0.749023 -0.532759 -0.45891 -0.711034
-0.172852 0.290039 0.752407 -0.57486 -0.371352 -0.729132
-0.254883 0.271996 0.801758 -0.468003 -0.843407 -0.26389
-0.245104 0.266602 0.801758 -0.337606 -0.859995 -0.382662
-0.249023 0.268523 0.801758 -0.363716 -0.873078 -0.324724
-0.171769 0.28418 0.754883 -0.495282 -0.498567 -0.711426
-0.172852 0.285679 0.754883 -0.50645 -0.457002 -0.731203
-0.172852 0.28418 0.75586 -0.509544 -0.513271 -0.690592
-0.178711 0.266602 0.771686 -0.146207 -0.709944 -0.688914
-0.172852 0.269804 0.766602 -0.239259 -0.752167 -0.614004
-0.172852 0.266602 0.770177 -0.191952 -0.702937 -0.68486
-0.163694 0.266602 0.766602 -0.450134 -0.581675 -0.67752
-0.166992 0.268664 0.766602 -0.362418 -0.673209 -0.644549
-0.166992 0.266602 0.769169 -0.435827 -0.634089 -0.638738
-0.243164 0.265604 0.807617 -0.169174 -0.984247 -0.0513688
-0.237305 0.264522 0.807617 -0.0452208 -0.996979 -0.0631482
-0.231445 0.263847 0.807617 -0.394561 -0.917033 0.058061
-0.222706 0.260742 0.807617 -0.392468 -0.872217 0.291902
-0.225586 0.262954 0.807617 -0.435207 -0.899289 0.0432979
-0.219727 0.260742 0.810689 -0.594466 -0.801823 0.0607443
-0.173923 0.27832 0.760742 -0.426842 -0.577452 -0.695956
-0.178711 0.27832 0.764543 -0.52035 -0.450374 -0.725534
-0.267696 0.290039 0.78418 -0.606753 -0.693481 -0.388502
-0.272461 0.293314 0.78418 -0.460427 -0.8566 -0.232903
-0.18457 0.272461 0.771633 -0.522047 -0.531811 -0.666816
-0.177607 0.272461 0.766602 -0.335627 -0.598742 -0.727229
-0.178711 0.273596 0.766602 -0.39666 -0.509691 -0.763463
-0.178711 0.272461 0.767109 -0.346095 -0.56065 -0.752256
-0.265271 0.28418 0.790039 -0.612022 -0.662463 -0.431941
-0.266602 0.285525 0.790039 -0.628232 -0.655367 -0.419308
-0.266602 0.28418 0.792734 -0.651436 -0.667901 -0.359916
-0.261508 0.27832 0.795898 -0.456361 -0.840097 -0.293208
-0.266602 0.282819 0.795898 -0.649235 -0.707773 -0.278481
-0.255477 0.272461 0.801758 -0.52005 -0.813985 -0.258799
-0.260742 0.276939 0.801758 -0.537131 -0.835387 -0.116698
-0.178711 0.265876 0.772461 -0.158567 -0.712427 -0.683597
-0.178711 0.260742 0.777891 -0.232757 -0.678064 -0.697176
-0.172852 0.26423 0.772461 -0.217171 -0.622796 -0.75164
-0.172852 0.260742 0.775836 -0.326933 -0.613177 -0.719117
-0.165969 0.260742 0.772461 -0.368331 -0.59647 -0.713131
-0.166992 0.261327 0.772461 -0.372511 -0.581584 -0.723185
-0.166992 0.260742 0.772837 -0.358902 -0.578976 -0.732104
-0.18457 0.295482 0.754883 -0.125098 -0.528566 -0.839624
-0.18457 0.290039 0.75823 -0.215216 -0.46761 -0.857335
-0.176114 0.290039 0.754883 -0.5598 -0.313388 -0.76708
-0.178711 0.294605 0.754883 -0.608455 -0.343356 -0.715464
-0.178711 0.290039 0.757087 -0.656799 -0.310141 -0.687333
-0.254883 0.271977 0.807617 -0.591824 -0.804313 0.0531377
-0.245722 0.266602 0.807617 -0.412967 -0.908606 -0.0623919
-0.249023 0.268867 0.807617 -0.354115 -0.925409 -0.134985
-0.179553 0.266602 0.772461 -0.211752 -0.711549 -0.669969
-0.18457 0.271652 0.772461 -0.5305 -0.54906 -0.645835
-0.18457 0.266602 0.776495 -0.456245 -0.594606 -0.662031
-0.18457 0.287243 0.760742 -0.346781 -0.561957 -0.750964
-0.18457 0.28418 0.764099 -0.492434 -0.524404 -0.694628
-0.178402 0.28418 0.760742 -0.579972 -0.493765 -0.647941
-0.178711 0.284575 0.760742 -0.593575 -0.478024 -0.647427
-0.178711 0.28418 0.760988 -0.583607 -0.485412 -0.650982
-0.243164 0.266065 0.813477 -0.274419 -0.941704 0.194647
-0.237305 0.265002 0.813477 -0.0648417 -0.993638 0.0920865
-0.231445 0.264666 0.813477 -0.228107 -0.966258 0.119638
-0.225586 0.263659 0.813477 -0.534925 -0.838518 0.103647
-0.217871 0.260742 0.813477 -0.578535 -0.812825 0.067919
