ply
format ascii 1.0
comment author Lingfeng Ai
element vertex 840
property float x
property float y
property float z
property float nx
property float ny
property float nz
end_header
0.225586 0.0251387 0.649414 -0.402923 -0.647281 -0.647056
0.231445 0.0233024 0.649414 0.14704 -0.897064 -0.416719
0.241177 0.0205078 0.649414 -0.434215 -0.818214 -0.376806
0.237305 0.022017 0.649414 -0.111564 -0.982236 -0.150886
0.237305 0.0205078 0.652605 -0.157784 -0.743269 -0.65012
0.260742 0.0322266 0.637306 -0.237301 -0.288745 -0.927531
0.271277 0.0322266 0.631836 -0.267512 -0.26794 -0.925552
0.266602 0.0322266 0.635077 -0.607719 -0.209376 -0.766054
0.370197 0.0322266 0.631836 0.262103 0.309824 -0.913953
0.366211 0.0359709 0.631836 0.293981 0.242548 -0.924524
0.37207 0.0322266 0.632535 0.234966 0.308817 -0.921641
0.196289 0.0491561 0.625977 -0.264417 -0.86543 -0.425576
0.202148 0.0482553 0.625977 0.604706 -0.77383 -0.188459
0.231445 0.0439453 0.630256 0.275829 -0.0411498 -0.960325
0.272461 0.0439453 0.631257 -0.380774 0.050511 -0.923287
0.27832 0.0439453 0.629587 0.0420097 0.0709962 -0.996592
0.28418 0.0439453 0.629537 0.092529 0.163135 -0.982255
0.290039 0.0439453 0.629511 0.0220775 0.369188 -0.929092
0.295898 0.0439453 0.629481 0.160569 0.508849 -0.845749
0.301758 0.0439453 0.629736 -0.0620206 0.477293 -0.876553
0.307617 0.0439453 0.630326 0.0915022 0.324447 -0.941468
0.313477 0.0439453 0.631388 0.19847 0.238109 -0.950744
0.231445 0.0263672 0.641533 -0.144069 -0.219552 -0.964905
0.237305 0.0263672 0.641487 0.119282 -0.253139 -0.960048
0.243164 0.0263672 0.642742 0.0723403 -0.291057 -0.953967
0.249023 0.0263672 0.642759 -0.246606 -0.307857 -0.918918
0.258974 0.0263672 0.637695 -0.324634 0.134306 -0.936256
0.254883 0.0263672 0.640324 -0.385526 -0.0763852 -0.91953
0.238115 0.0146484 0.655273 -0.609214 -0.441291 -0.658879
0.237305 0.0156969 0.655273 -0.627894 -0.446394 -0.637559
0.237305 0.0146484 0.656013 -0.633477 -0.430899 -0.642676
0.172852 0.0471117 0.678711 0.0220841 -0.961347 -0.274451
0.184005 0.0439453 0.678711 -0.79586 -0.557157 -0.23703
0.178711 0.0481101 0.678711 -0.129648 -0.952728 -0.274774
0.219727 0.0252807 0.655273 -0.656208 -0.597219 -0.461216
0.225586 0.0229771 0.655273 -0.266661 -0.90019 -0.344311
0.2347 0.0205078 0.655273 -0.215708 -0.857702 -0.466709
0.231445 0.0216293 0.655273 0.0138819 -0.947482 -0.319508
0.231445 0.0205078 0.658751 -0.13438 -0.907506 -0.397963
0.219727 0.042702 0.637695 -0.163806 -0.475981 -0.864066
0.219727 0.0380859 0.642337 -0.285089 -0.689069 -0.666264
0.225586 0.0403372 0.637695 -0.197996 -0.581106 -0.789375
0.225586 0.0380859 0.639565 0.00102122 -0.792828 -0.609445
0.231445 0.0404707 0.637695 0.222345 -0.609142 -0.761255
0.231445 0.0380859 0.641468 -0.0512309 -0.796925 -0.601902
0.240492 0.0380859 0.637695 -0.282577 -0.556549 -0.781283
0.237305 0.0401657 0.637695 -0.319166 -0.510106 -0.798702
0.237305 0.0380859 0.639383 -0.330518 -0.579228 -0.745152
0.219727 0.0322266 0.642417 -0.410953 -0.379216 -0.829043
0.225586 0.0322266 0.642775 0.0417898 -0.154041 -0.98718
0.231445 0.0322266 0.642085 -0.327859 0.0941349 -0.940025
0.237305 0.0322266 0.638299 0.00386106 -0.275956 -0.961162
0.243164 0.0365161 0.637695 -0.195764 -0.596557 -0.778329
0.243164 0.0322266 0.641171 -0.20344 -0.474899 -0.856203
0.249023 0.0361192 0.637695 0.0843726 -0.530457 -0.843502
0.249023 0.0322266 0.640545 -0.0641045 -0.472942 -0.878758
0.256582 0.0322266 0.637695 -0.177471 -0.297981 -0.937929
0.254883 0.0334609 0.637695 -0.146458 -0.327932 -0.933279
0.254883 0.0322266 0.637871 -0.148401 -0.294428 -0.944081
0.196289 0.0487556 0.631836 -0.338675 -0.940636 -0.0224321
0.202148 0.0469745 0.631836 0.610715 -0.7528 -0.2456
0.219727 0.0439453 0.63644 0.0558631 -0.542456 -0.838225
0.229458 0.0439453 0.631836 0.140336 0.103365 -0.984694
0.225586 0.0460734 0.631836 0.517152 -0.459637 -0.722002
0.225586 0.0439453 0.634808 -0.288909 -0.117746 -0.950088
0.23363 0.0439453 0.631836 0.0526106 -0.34583 -0.936821
0.231445 0.0476176 0.631836 -0.116451 -0.393459 -0.911937
0.237305 0.0439453 0.634673 -0.183624 -0.347097 -0.919677
0.243164 0.0439453 0.63278 -0.323656 -0.270879 -0.906571
0.249023 0.0440661 0.631836 0.0393013 -0.483968 -0.874202
0.249023 0.0439453 0.631889 0.0442662 -0.486017 -0.872828
0.254883 0.045604 0.631836 0.088105 -0.563585 -0.821346
0.254883 0.0439453 0.633037 0.103162 -0.58155 -0.806943
0.260742 0.0469759 0.631836 0.191073 -0.492718 -0.848952
0.260742 0.0439453 0.634225 0.0686165 -0.605631 -0.792782
0.269757 0.0439453 0.631836 -0.222196 0.112498 -0.96849
0.266602 0.0439453 0.632867 -0.0740966 -0.230618 -0.970219
0.272461 0.0468273 0.631836 -0.399487 -0.142861 -0.905539
0.295898 0.049171 0.631836 0.23748 0.244073 -0.94023
0.301758 0.0469691 0.631836 -0.0272588 0.548516 -0.835696
0.307617 0.0495604 0.631836 0.0531443 0.685599 -0.726037
0.316006 0.0439453 0.631836 0.20059 0.234354 -0.951232
0.313477 0.0460353 0.631836 0.184029 0.405121 -0.89555
0.319336 0.0439453 0.632484 0.198971 0.328574 -0.923282
0.325195 0.0439453 0.633173 0.163635 0.4705 -0.867095
0.331055 0.0439453 0.633901 0.120721 0.539653 -0.833188
0.336914 0.0439453 0.634507 0.107556 0.602949 -0.790496
0.342773 0.0439453 0.633874 -0.302328 0.564789 -0.767861
0.348633 0.0439453 0.633298 0.0593827 0.52779 -0.847296
0.354492 0.0439453 0.633538 0.0150327 0.575298 -0.817805
0.360352 0.0439453 0.633277 -0.0318044 0.471903 -0.881076
0.366211 0.0439453 0.634343 0.215338 0.279361 -0.935728
0.37207 0.0439453 0.635525 0.220982 0.472088 -0.853405
0.219727 0.031418 0.643555 -0.488328 -0.489754 -0.722272
0.228079 0.0263672 0.643555 -0.29894 -0.0917559 -0.94985
0.225586 0.0300946 0.643555 -0.210537 -0.19555 -0.957828
0.225586 0.0263672 0.645731 -0.519853 -0.287232 -0.804519
0.232873 0.0146484 0.661133 -0.630322 -0.440997 -0.638918
0.231445 0.016772 0.661133 -0.524507 -0.604368 -0.599693
0.231445 0.0146484 0.662686 -0.610843 -0.480581 -0.629216
0.172852 0.0453207 0.68457 0.0217691 -0.980947 0.193054
0.172852 0.0439453 0.687996 -0.369152 -0.816377 -0.444135
0.181969 0.0439453 0.68457 -0.662755 -0.746857 -0.0544098
0.178711 0.0461136 0.68457 -0.567224 -0.818462 0.0915312
0.178711 0.0439453 0.688142 -0.664146 -0.687087 -0.294655
0.213867 0.0259348 0.661133 -0.754794 -0.508286 -0.414645
0.219727 0.023268 0.661133 -0.223803 -0.964466 -0.140421
0.228584 0.0205078 0.661133 -0.273748 -0.918382 -0.285721
0.225586 0.0213128 0.661133 -0.345111 -0.932198 -0.109108
0.225586 0.0205078 0.664187 -0.495912 -0.797524 -0.343551
0.219196 0.0322266 0.643555 -0.567288 -0.418308 -0.709368
0.208008 0.0425134 0.643555 0.141833 -0.62512 -0.767534
0.218094 0.0380859 0.643555 -0.341412 -0.727719 -0.594864
0.213867 0.0408179 0.643555 -0.562848 -0.402019 -0.722207
0.213867 0.0380859 0.64688 -0.383529 -0.711716 -0.588529
0.221474 0.0263672 0.649414 -0.5418 -0.499766 -0.675785
0.219727 0.0285494 0.649414 -0.754022 -0.35631 -0.551809
0.219727 0.0263672 0.65111 -0.767628 -0.412417 -0.490571
0.229124 0.0146484 0.666992 -0.679063 -0.567522 -0.465609
0.225586 0.0188324 0.666992 -0.463779 -0.738873 -0.488851
0.19043 0.0491421 0.637695 -0.0817192 -0.965543 0.247079
0.196289 0.0489508 0.637695 -0.483762 -0.865421 0.130465
0.202148 0.0463979 0.637695 0.300783 -0.938389 -0.170166
0.208008 0.0464416 0.637695 0.262422 -0.962864 -0.0634559
0.208008 0.0439453 0.641094 0.491722 -0.381774 -0.782597
0.217451 0.0439453 0.637695 -0.416384 -0.660126 -0.625187
0.213867 0.0455785 0.637695 -0.605381 -0.790811 0.0901763
0.213867 0.0439453 0.639763 -0.817974 0.0211819 -0.574865
0.336914 0.0486056 0.637695 0.080372 0.630623 -0.771917
0.342773 0.0474319 0.637695 -0.320152 0.589425 -0.741674
0.360352 0.0495474 0.637695 -0.251527 0.448955 -0.857423
0.178711 0.0439453 0.694473 -0.333115 -0.905735 -0.262064
0.217803 0.0322266 0.649414 -0.646081 -0.544177 -0.535211
0.213867 0.0360024 0.649414 -0.360188 -0.72772 -0.583685
0.213867 0.0322266 0.653821 -0.430212 -0.710008 -0.5575
0.213867 0.0244055 0.666992 -0.584253 -0.769764 -0.257122
0.223364 0.0205078 0.666992 -0.397214 -0.77099 -0.497791
0.219727 0.0216955 0.666992 -0.223064 -0.924167 -0.310093
0.219727 0.0205078 0.67084 -0.488326 -0.816755 -0.307326
0.211286 0.0380859 0.649414 -0.314592 -0.725195 -0.612474
0.208008 0.0398051 0.649414 -0.363233 -0.685505 -0.630987
0.208008 0.0380859 0.652672 -0.418134 -0.815706 -0.399734
0.219727 0.0194618 0.672852 -0.568665 -0.754884 -0.326757
0.22643 0.0146484 0.672852 -0.572132 -0.684185 -0.452279
0.225586 0.0153499 0.672852 -0.543037 -0.711842 -0.445413
0.225586 0.0146484 0.674194 -0.569831 -0.704785 -0.422575
0.216858 0.0263672 0.655273 -0.647657 -0.324554 -0.689351
0.213867 0.0304254 0.655273 -0.527482 -0.54323 -0.653196
0.213867 0.0263672 0.659522 -0.753002 -0.462065 -0.468491
0.179556 0.0439453 0.696289 -0.186733 -0.956916 -0.222357
0.178711 0.0444648 0.696289 -0.0879783 -0.943163 -0.320473
0.178711 0.0439453 0.697788 0.00844631 -0.977733 -0.209685
0.206452 0.0439453 0.643555 0.180124 -0.663172 -0.72647
0.202148 0.046032 0.643555 0.0735013 -0.918384 -0.388804
0.210038 0.0322266 0.655273 -0.516202 -0.727143 -0.452547
0.208008 0.0336217 0.655273 -0.537282 -0.742811 -0.39945
0.218357 0.0205078 0.672852 -0.574619 -0.780819 -0.245224
0.213867 0.0226806 0.672852 -0.415246 -0.908378 0.0491904
0.206182 0.0380859 0.655273 -0.467856 -0.802978 -0.369239
0.202148 0.0421954 0.655273 -0.861673 -0.46691 -0.198782
0.208008 0.0146484 0.679197 0.498757 -0.15472 -0.852821
0.2213 0.0146484 0.678711 -0.506523 -0.777136 -0.373489
0.219727 0.0156919 0.678711 -0.53375 -0.743092 -0.40364
0.219727 0.0146484 0.680525 -0.491992 -0.772254 -0.401955
0.213358 0.0263672 0.661133 -0.798338 -0.440548 -0.410579
0.178711 0.0439453 0.704142 -0.306665 -0.94672 0.098381
0.196289 0.0474678 0.649414 -0.363851 -0.930818 -0.0344967
0.203581 0.0439453 0.649414 -0.346813 -0.88756 -0.303245
0.202148 0.0445985 0.649414 -0.397628 -0.908977 -0.125109
0.202148 0.0439453 0.652398 -0.685009 -0.726561 -0.0535819
0.209758 0.0322266 0.661133 -0.57896 -0.724435 -0.374165
0.208008 0.0336933 0.661133 -0.605424 -0.715793 -0.347999
0.208008 0.0322266 0.664427 -0.60527 -0.693643 -0.390523
0.196289 0.0422001 0.661133 -0.399816 -0.606918 -0.686875
0.202853 0.0380859 0.661133 -0.608518 -0.7812 -0.139397
0.202148 0.0388584 0.661133 -0.60471 -0.766324 -0.216964
0.202148 0.0380859 0.66267 -0.44895 -0.832728 -0.324049
0.208008 0.0240101 0.678711 -0.233408 -0.951369 -0.201042
0.208008 0.0205078 0.682128 0.12388 -0.502229 -0.855815
0.214554 0.0205078 0.678711 -0.727745 -0.586144 -0.356122
0.213867 0.0210806 0.678711 -0.745412 -0.598349 -0.293835
0.213867 0.0205078 0.679789 -0.781561 -0.522947 -0.34013
0.21182 0.0263672 0.666992 -0.792733 -0.431364 -0.430697
0.208008 0.0311838 0.666992 -0.56724 -0.713886 -0.410615
0.203672 0.0146484 0.68457 -0.64807 0.189202 -0.737704
0.202148 0.0146484 0.687419 -0.915778 0.0661755 -0.396197
0.212188 0.0146484 0.68457 -0.180548 -0.501686 -0.845998
0.216921 0.0146484 0.68457 -0.515198 -0.701718 -0.4921
0.213867 0.0174141 0.68457 -0.593262 -0.530477 -0.605504
0.213867 0.0146484 0.686204 -0.35006 -0.539775 -0.765573
0.180942 0.0439453 0.708008 -0.0411864 -0.622154 0.78181
0.178711 0.0452808 0.708008 0.330466 -0.843542 0.423354
0.18457 0.0439453 0.713846 -0.92775 -0.277236 -0.249839
0.196289 0.0322266 0.670725 -0.00645491 -0.581049 -0.813843
0.206793 0.0322266 0.666992 -0.526807 -0.729582 -0.436102
0.202148 0.0364534 0.666992 -0.576771 -0.586898 -0.56823
0.199802 0.0439453 0.655273 -0.798263 -0.564493 0.210055
0.196289 0.0453346 0.655273 0.0476849 -0.996025 0.0752403
0.196289 0.0439453 0.658472 0.273592 -0.703675 -0.655736
0.19043 0.0380859 0.672107 -0.343066 -0.701003 -0.62522
0.199191 0.0380859 0.666992 -0.467879 -0.833306 -0.29443
0.196289 0.0396347 0.666992 -0.527297 -0.796578 -0.295672
0.196289 0.0380859 0.670627 -0.461708 -0.722807 -0.514175
0.202412 0.0205078 0.68457 -0.670203 -0.357687 -0.650298
0.202148 0.020759 0.68457 -0.658857 -0.43095 -0.616595
0.202148 0.0205078 0.685245 -0.699592 -0.336238 -0.630488
0.196558 0.0146484 0.69043 -0.628666 0.366911 -0.685678
0.196289 0.0146484 0.690867 -0.616235 0.347959 -0.706526
0.196289 0.0308815 0.672852 0.252213 -0.752687 -0.608154
0.211109 0.0263672 0.672852 -0.772609 -0.634088 0.0317517
0.208008 0.0301801 0.672852 -0.527645 -0.811787 -0.250183
0.208008 0.0263672 0.677346 -0.440508 -0.855819 -0.271156
0.193437 0.0322266 0.672852 -0.419288 -0.0758408 -0.90468
0.19043 0.0374756 0.672852 -0.353167 -0.666687 -0.656355
0.199997 0.0322266 0.672852 -0.357026 -0.818538 -0.450031
0.203978 0.0322266 0.672852 -0.454787 -0.828699 -0.32623
0.202148 0.0335478 0.672852 -0.58263 -0.721882 -0.373401
0.202148 0.0322266 0.674959 -0.495491 -0.797397 -0.34445
0.178711 0.0445912 0.713867 0.637577 -0.748798 -0.181099
0.178711 0.0439453 0.718157 0.49217 -0.784274 0.377734
0.184594 0.0439453 0.713867 -0.927489 -0.275993 -0.252174
0.18457 0.0439991 0.713867 -0.926621 -0.27958 -0.251414
0.18457 0.0439453 0.713915 -0.927391 -0.275437 -0.253141
0.194399 0.0439453 0.661133 -0.419026 -0.765276 -0.488641
0.19043 0.0481006 0.661133 -0.347621 -0.922411 -0.168276
0.200013 0.0205078 0.69043 -0.758925 -0.583342 -0.289385
0.196289 0.0205078 0.692643 -0.795833 -0.135216 -0.590226
0.190562 0.0322266 0.678711 -0.758156 -0.431295 -0.489064
0.19043 0.0324643 0.678711 -0.759473 -0.434562 -0.484104
0.19043 0.0322266 0.678945 -0.769502 -0.432686 -0.469733
0.196289 0.0298686 0.678711 -0.0924328 -0.709242 -0.698879
0.203728 0.0263672 0.678711 -0.25497 -0.772923 -0.581016
0.202148 0.0275706 0.678711 -0.135498 -0.714953 -0.685918
0.202148 0.0263672 0.680164 -0.10095 -0.864591 -0.492231
0.191958 0.0439453 0.666992 -0.598803 -0.712953 -0.364873
0.19043 0.0453738 0.666992 -0.0335859 -0.938568 -0.343457
0.19043 0.0439453 0.668968 0.0287351 -0.777445 -0.628294
0.194779 0.0205078 0.696289 -0.837993 0.316074 -0.44482
0.196289 0.0250146 0.696289 -0.834818 -0.512696 -0.200556
0.19043 0.0322266 0.689188 -0.493524 -0.863568 -0.103365
0.19043 0.0311852 0.68457 -0.673986 -0.737602 0.041068
0.200358 0.0263672 0.68457 -0.139774 -0.972939 -0.18399
0.196289 0.0287006 0.68457 -0.526258 -0.850323 -0.0015793
0.19303 0.0205078 0.702148 -0.8064 0.499754 -0.316171
0.190952 0.0322266 0.69043 -0.392514 -0.916168 -0.0810529
0.19043 0.032665 0.69043 -0.386968 -0.910117 -0.148133
0.19043 0.0322266 0.69314 -0.179912 -0.975872 -0.123717
0.198698 0.0263672 0.69043 -0.492528 -0.816339 -0.301673
0.196289 0.0284033 0.69043 -0.779501 -0.608051 -0.15051
0.191075 0.0205078 0.708008 -0.918632 0.100334 -0.382164
0.19043 0.0217993 0.708008 -0.844648 -0.309047 -0.437104
0.19043 0.0316776 0.696289 -0.170456 -0.955888 -0.239213
0.196821 0.0263672 0.696289 -0.742233 -0.656137 -0.136289
0.196289 0.0270357 0.696289 -0.785258 -0.604227 -0.135203
0.196289 0.0263672 0.698356 -0.757828 -0.631272 -0.164904
0.190544 0.0263672 0.702148 -0.225405 -0.919069 -0.323271
0.19043 0.0263916 0.702148 -0.211771 -0.920647 -0.327966
0.19043 0.0263672 0.702192 -0.20972 -0.920654 -0.329263
0.178711 0.0765254 0.508789 -0.275327 -0.741911 -0.611362
0.18457 0.0752711 0.508789 -0.15959 -0.822055 -0.546586
0.18457 0.0732422 0.51382 -0.175203 -0.923149 -0.342198
0.18457 0.0729398 0.514648 -0.188157 -0.926195 -0.326741
0.196289 0.0730075 0.508789 0.247562 -0.876484 -0.412903
0.166992 0.0820457 0.508789 -0.304225 -0.807197 -0.505846
0.173821 0.0791016 0.508789 -0.4906 -0.572815 -0.656653
0.172852 0.0799521 0.508789 -0.414764 -0.644388 -0.642445
0.172852 0.0791016 0.510544 -0.510195 -0.676893 -0.530581
0.219957 0.0791016 0.508789 0.896549 -0.440164 -0.0495612
0.256014 0.0791016 0.508789 -0.840801 0.39895 0.365913
0.193906 0.0732422 0.508789 0.0977046 -0.885804 -0.453658
0.19043 0.0738187 0.508789 -0.180837 -0.870826 -0.457121
0.19043 0.0732422 0.510176 -0.184215 -0.881292 -0.435188
0.19679 0.0732422 0.508789 0.209524 -0.889418 -0.406245
0.202148 0.0755719 0.508789 -0.114219 -0.925182 -0.361928
0.202148 0.0732422 0.513341 0.253412 -0.898999 -0.357188
0.208008 0.0751162 0.508789 0.637732 -0.725441 -0.258906
0.213867 0.0790753 0.508789 0.0481166 -0.990366 -0.129849
0.219727 0.0789224 0.508789 0.902505 -0.428949 -0.0385593
0.255875 0.0732422 0.508789 -0.992613 -0.120075 -0.0173419
0.178711 0.0728966 0.520508 -0.347679 -0.896708 -0.273923
0.18457 0.071654 0.520508 -0.257438 -0.931866 -0.255638
0.172852 0.0779103 0.514648 -0.414068 -0.85527 -0.311546
0.183619 0.0732422 0.514648 -0.207462 -0.926141 -0.314996
0.178711 0.0746568 0.514648 -0.407462 -0.888018 -0.21307
0.178711 0.0732422 0.519081 -0.387397 -0.877739 -0.281953
0.19043 0.0716943 0.514648 -0.240703 -0.891919 -0.38281
0.196289 0.0713753 0.514648 0.0290069 -0.841481 -0.539508
0.202148 0.0724021 0.514648 0.417829 -0.832775 -0.363187
0.171182 0.0791016 0.514648 -0.411573 -0.81406 -0.409773
0.166992 0.081629 0.514648 -0.597064 -0.759398 -0.258512
0.213867 0.0791016 0.516172 0.128653 -0.903989 0.407741
0.221655 0.0791016 0.514648 0.510933 -0.848201 0.139652
0.219727 0.0791016 0.517517 0.350279 -0.91481 0.201068
0.225586 0.0841024 0.514648 0.812216 -0.578884 -0.0721025
0.256749 0.0791016 0.514648 -0.465719 0.279052 0.839783
0.260742 0.0847749 0.514648 -0.712748 0.0867639 0.696033
0.19043 0.0667814 0.526367 -0.0854742 -0.918104 -0.387014
0.196289 0.0672596 0.526367 0.168879 -0.952663 -0.252811
0.18457 0.0615234 0.537817 -0.81618 -0.557935 0.150193
0.204762 0.0732422 0.514648 0.456061 -0.889309 -0.0337266
0.208008 0.073985 0.514648 0.821355 -0.509163 0.257156
0.208008 0.0732422 0.519256 0.996536 -0.0253263 -0.0792077
0.213867 0.0765145 0.514648 -0.134612 -0.517727 0.84489
0.213867 0.0732422 0.518364 0.930815 0.170567 0.32325
0.219727 0.0760061 0.514648 0.80743 -0.322285 0.494154
0.257417 0.0732422 0.514648 -0.406857 0.17603 0.896371
0.260742 0.0732422 0.518541 -0.925284 0.151493 0.347705
0.18457 0.0614387 0.538086 -0.760739 -0.614933 0.207684
0.178711 0.071723 0.526367 -0.254106 -0.944318 -0.209029
0.18944 0.0673828 0.526367 -0.164857 -0.924597 -0.343428
0.18457 0.0699862 0.526367 -0.347735 -0.915079 -0.204232
0.19043 0.0695673 0.520508 -0.201081 -0.953607 -0.224053
0.19043 0.0673828 0.525212 -0.0592683 -0.94059 -0.33433
0.196289 0.0680628 0.520508 0.0944387 -0.990184 -0.103039
0.196289 0.0673828 0.525277 0.143647 -0.963945 -0.224
0.202148 0.0697943 0.520508 0.568644 -0.811188 -0.13645
0.208008 0.0729257 0.520508 0.982848 -0.128801 -0.131985
0.213867 0.0720074 0.520508 0.975207 -0.125761 0.182084
0.19043 0.0597476 0.538086 0.562773 -0.808791 0.170715
0.17789 0.0732422 0.520508 -0.383278 -0.873947 -0.298856
0.172852 0.0760159 0.520508 -0.369434 -0.880109 -0.298205
0.167729 0.0791016 0.520508 -0.565167 -0.783381 -0.258651
0.166992 0.0797684 0.520508 -0.624834 -0.729139 -0.279175
0.166992 0.0791016 0.522726 -0.577634 -0.791017 -0.20157
0.211223 0.0791016 0.520508 0.377601 -0.925039 -0.0414649
0.213867 0.0816981 0.520508 0.671465 -0.600899 0.433654
0.219727 0.0823973 0.520508 -0.107519 -0.699638 0.706361
0.225586 0.0838816 0.520508 0.691178 -0.700047 0.179461
0.19043 0.0645759 0.532227 -0.392154 -0.772597 -0.499308
0.19043 0.0615234 0.534438 0.449991 -0.861496 -0.23523
0.196289 0.0647556 0.532227 0.874534 -0.450334 0.179971
0.184495 0.0615234 0.538086 -0.777266 -0.600215 0.188679
0.178711 0.0664945 0.538086 -0.117355 -0.893326 -0.433817
0.18457 0.0615234 0.538992 -0.662166 -0.744888 0.0817202
0.214697 0.0732422 0.520508 0.822856 -0.568112 0.0125602
0.213867 0.074438 0.520508 0.577832 -0.729362 -0.366252
0.213867 0.0732422 0.525975 0.671638 -0.636255 0.37958
0.262493 0.0732422 0.520508 -0.704959 0.0381254 0.708222
0.196609 0.0673828 0.526367 0.180266 -0.954335 -0.238222
0.202148 0.0690924 0.526367 0.815232 -0.528184 0.237525
0.208008 0.0713964 0.526367 0.282615 -0.333417 0.899423
0.172852 0.0719345 0.532227 -0.380172 -0.898993 -0.217442
0.178711 0.0700626 0.532227 -0.318797 -0.919102 -0.231559
0.178711 0.0673828 0.53656 -0.235219 -0.870101 -0.433123
0.185116 0.0673828 0.532227 -0.3815 -0.878644 -0.287127
0.18457 0.0676938 0.532227 -0.395942 -0.875691 -0.276397
0.18457 0.0673828 0.533419 -0.403701 -0.864276 -0.300087
0.166992 0.0782142 0.526367 -0.590671 -0.779018 -0.210331
0.17347 0.0732422 0.526367 -0.420011 -0.871119 -0.254446
0.172852 0.0735247 0.526367 -0.438293 -0.861475 -0.256438
0.172852 0.0732422 0.527364 -0.433179 -0.86724 -0.245462
0.211967 0.0791016 0.526367 0.507154 -0.860984 -0.0387399
0.213867 0.0812898 0.526367 0.77666 -0.596319 -0.202984
0.18457 0.0605366 0.549805 0.141191 -0.90608 -0.398854
0.193472 0.0615234 0.538086 0.529404 -0.847351 0.0415577
0.19043 0.0615234 0.543898 0.370655 -0.920547 -0.123322
0.196289 0.0638152 0.538086 0.955846 -0.291766 0.0350792
0.19043 0.0592546 0.549805 0.574878 -0.761263 -0.299989
0.165208 0.0791016 0.526367 -0.644753 -0.738835 -0.196
0.161133 0.0821482 0.526367 -0.629601 -0.766359 -0.127655
0.161133 0.0791016 0.53176 -0.637709 -0.704273 -0.311973
0.178711 0.0646538 0.543945 0.174789 -0.925501 -0.336
0.18457 0.0623692 0.543945 -0.359865 -0.850546 -0.383494
0.18457 0.0615234 0.545144 -0.276999 -0.872313 -0.402917
0.20027 0.0673828 0.532227 0.509496 -0.646216 0.568171
0.202148 0.0682758 0.532227 0.720383 -0.538768 0.436781
0.213593 0.0732422 0.526367 0.688324 -0.545492 0.478172
0.208008 0.0732422 0.527601 0.524979 -0.555288 0.645021
0.176875 0.0673828 0.538086 -0.36318 -0.767883 -0.527689
0.172852 0.0699452 0.538086 -0.353741 -0.873493 -0.334481
0.161133 0.0789552 0.532227 -0.626593 -0.720169 -0.29789
0.171203 0.0732422 0.532227 -0.477199 -0.848069 -0.230348
0.166992 0.0758687 0.532227 -0.504697 -0.845782 -0.173016
0.209541 0.0791016 0.532227 0.456708 -0.884357 -0.0965991
0.213867 0.0811369 0.532227 0.577704 -0.770719 -0.268794
0.19043 0.0556632 0.561523 0.0325036 -0.937776 -0.345716
0.196289 0.0546677 0.561523 0.975005 -0.126597 -0.182591
0.172852 0.0603437 0.555664 -0.389533 -0.848525 -0.358147
0.178711 0.0593014 0.555664 -0.407502 -0.774619 -0.48364
0.18457 0.0590798 0.555664 0.471926 -0.696195 -0.540923
0.19043 0.061566 0.543945 0.371917 -0.91953 -0.127057
0.19043 0.0615234 0.544092 0.375494 -0.918475 -0.124132
0.196289 0.0638108 0.543945 0.833934 -0.421886 -0.355761
0.19043 0.0576712 0.555664 0.341516 -0.741417 -0.57764
0.19043 0.0556641 0.561518 0.032589 -0.937594 -0.346201
0.196289 0.0615003 0.555664 0.628265 -0.675061 -0.386749
0.196289 0.0556641 0.559283 0.930332 0.117557 -0.347365
0.1609 0.0791016 0.532227 -0.631564 -0.713071 -0.304396
0.155273 0.0845231 0.532227 -0.58914 -0.726684 -0.353333
0.172852 0.0650102 0.549805 -0.597534 -0.728933 -0.334081
0.172852 0.0615234 0.552814 -0.516369 -0.500704 -0.694736
0.18205 0.0615234 0.549805 -0.0697883 -0.740025 -0.668949
0.178711 0.0631851 0.549805 -0.310189 -0.706452 -0.636167
0.178711 0.0615234 0.551807 -0.355656 -0.706316 -0.612067
0.198971 0.0673828 0.538086 0.608715 -0.768706 -0.196359
0.196289 0.0731424 0.538086 -0.177042 -0.961895 -0.208361
0.196289 0.0732422 0.537991 -0.180165 -0.964285 -0.19415
0.205377 0.0732422 0.532227 0.691492 -0.705176 -0.156735
0.202148 0.0732422 0.538022 0.53338 -0.838943 -0.108074
0.208008 0.0780282 0.532227 0.482714 -0.866116 -0.12973
0.161133 0.0778433 0.538086 -0.574392 -0.763692 -0.294699
0.168836 0.0732422 0.538086 -0.51659 -0.807113 -0.285839
0.166992 0.0746076 0.538086 -0.511679 -0.801684 -0.30901
0.166992 0.0732422 0.542677 -0.469458 -0.849011 -0.242466
0.166992 0.0727012 0.543945 -0.461513 -0.855966 -0.233081
0.173271 0.0673828 0.543945 -0.64692 -0.682686 -0.339756
0.172852 0.0677699 0.543945 -0.650658 -0.690457 -0.316091
0.172852 0.0673828 0.544848 -0.678009 -0.662187 -0.31908
0.211269 0.0791016 0.538086 0.775122 -0.528087 0.346858
0.213867 0.0805804 0.538086 0.608994 -0.26 0.74935
0.219727 0.0824839 0.538086 0.0701241 -0.24704 0.966465
0.19043 0.0553375 0.567383 0.363365 -0.814933 0.451497
0.196289 0.0534997 0.567383 0.90828 -0.264102 0.324467
0.172852 0.0593909 0.561523 -0.561492 -0.826518 -0.0399277
0.178711 0.0590695 0.561523 -0.30772 -0.949861 0.0554209
0.190428 0.0556641 0.561523 0.0326436 -0.937798 -0.345644
0.18457 0.0572563 0.561523 0.190048 -0.976341 0.103153
0.192271 0.0615234 0.549805 0.535308 -0.834973 -0.127534
0.196289 0.0638337 0.549805 0.702121 -0.707733 0.0783628
0.196289 0.0615234 0.555644 0.626226 -0.677611 -0.385595
0.19903 0.0556641 0.561523 0.954796 0.218046 -0.202038
0.159037 0.0791016 0.538086 -0.566842 -0.768159 -0.297693
0.155273 0.0819634 0.538086 -0.549894 -0.760175 -0.346049
0.171012 0.0615234 0.555664 -0.738462 -0.501993 -0.450196
0.166992 0.0662889 0.555664 -0.648984 -0.649808 -0.395689
0.198578 0.0673828 0.543945 0.773668 -0.577058 -0.261615
0.202148 0.0715117 0.543945 0.555237 -0.83079 0.038726
0.196199 0.0732422 0.538086 -0.17385 -0.963065 -0.205625
0.196289 0.0733079 0.538086 -0.185518 -0.960865 -0.205722
0.196289 0.0732422 0.538336 -0.182973 -0.96337 -0.196058
0.202148 0.0732853 0.538086 0.534732 -0.837611 -0.111662
0.202148 0.0732422 0.538304 0.533172 -0.838956 -0.109001
0.208008 0.0764742 0.538086 0.563568 -0.80899 -0.167114
0.166242 0.0732422 0.543945 -0.449691 -0.858926 -0.245
0.161133 0.0762448 0.543945 -0.581394 -0.754687 -0.30402
0.213068 0.0791016 0.543945 0.817633 -0.185521 0.545031
0.16881 0.0673828 0.549805 -0.61647 -0.651855 -0.441645
0.166992 0.0687972 0.549805 -0.593731 -0.722691 -0.353837
0.166992 0.0673828 0.5521 -0.68224 -0.603865 -0.412185
0.196289 0.0543116 0.573242 0.977925 -0.189468 -0.088118
0.196296 0.0615234 0.555664 0.625325 -0.677824 -0.386683
0.166992 0.0605758 0.567383 -0.0600666 -0.922703 -0.380804
0.172852 0.0609491 0.567383 -0.688953 -0.666111 -0.285727
0.178711 0.0580305 0.567383 0.0895121 -0.969703 -0.227295
0.18968 0.0556641 0.567383 0.335398 -0.905107 0.261323
0.18457 0.0577416 0.567383 -0.0512824 -0.966698 -0.250729
0.19043 0.0556641 0.568523 0.653567 -0.732435 0.190762
0.199941 0.0556641 0.567383 0.939361 -0.318003 0.128354
0.156619 0.0791016 0.543945 -0.536587 -0.782474 -0.315925
0.155273 0.0799609 0.543945 -0.544051 -0.777188 -0.316208
0.155273 0.0791016 0.546316 -0.545478 -0.784276 -0.295575
0.201823 0.0673828 0.549805 0.971375 -0.11519 -0.207755
0.202148 0.0686316 0.549805 0.917145 -0.339591 -0.208623
0.203649 0.0732422 0.543945 0.426323 -0.895863 -0.125213
0.208008 0.0760969 0.543945 0.883571 -0.443308 0.150931
0.169888 0.0615234 0.561523 -0.599648 -0.794881 0.0926623
0.166992 0.0649586 0.561523 -0.598398 -0.704253 -0.382031
0.166992 0.0615234 0.565437 -0.192372 -0.904671 -0.380215
0.155273 0.0781018 0.549805 -0.609056 -0.749999 -0.257978
0.163395 0.0732422 0.549805 -0.482373 -0.862954 -0.150421
0.161133 0.0746697 0.549805 -0.472721 -0.854108 -0.216875
0.165086 0.0673828 0.555664 -0.686173 -0.592907 -0.42146
0.196289 0.0530132 0.579102 0.727793 -0.685721 0.0101465
0.198584 0.0615234 0.561523 0.596721 -0.792234 -0.12763
0.202148 0.0646526 0.561523 0.660061 -0.704859 0.259793
0.166992 0.0598538 0.573242 0.0764488 -0.95488 -0.286983
0.172852 0.0592064 0.573242 -0.653716 -0.738318 -0.165959
0.178711 0.0577585 0.573242 0.10055 -0.988715 -0.111053
0.18457 0.0573753 0.573242 -0.282555 -0.907744 -0.310104
0.193503 0.0556641 0.573242 0.664929 0.691192 -0.283059
0.19043 0.0567743 0.573242 0.811455 -0.47803 -0.336198
0.198156 0.0556641 0.573242 0.733522 -0.668403 -0.123222
0.196289 0.0581682 0.573242 -0.00162434 -0.909572 -0.415543
0.201795 0.0673828 0.555664 0.728969 -0.288501 -0.620784
0.202148 0.0676413 0.555664 0.731083 -0.268147 -0.627388
0.202148 0.0673828 0.555953 0.727423 -0.275441 -0.628481
0.153825 0.0791016 0.549805 -0.623336 -0.751872 -0.214802
0.149414 0.0825812 0.549805 -0.574174 -0.780928 -0.245918
0.202667 0.0732422 0.549805 0.520499 -0.824017 0.223778
0.208008 0.0753473 0.549805 0.910855 -0.318872 0.262038
0.161918 0.0615234 0.567383 -0.696378 -0.679009 -0.232391
0.161133 0.0623862 0.567383 -0.661054 -0.709653 -0.243721
0.155273 0.0767137 0.555664 -0.589234 -0.779461 -0.212708
0.161403 0.0732422 0.555664 -0.474857 -0.833985 -0.281033
0.161133 0.0733784 0.555664 -0.471173 -0.838756 -0.272917
0.161133 0.0732422 0.556066 -0.482164 -0.831479 -0.275973
0.162004 0.0673828 0.561523 -0.688634 -0.599187 -0.40836
0.161133 0.0683874 0.561523 -0.682162 -0.624449 -0.380418
0.161133 0.0673828 0.562793 -0.702955 -0.576265 -0.416861
0.213867 0.0791016 0.56695 0.595865 -0.799466 -0.0761522
0.199694 0.0615234 0.567383 0.47167 -0.83728 -0.276569
0.196289 0.0615234 0.570339 -0.157324 -0.983544 -0.0888244
0.202148 0.0635753 0.567383 0.750954 -0.571182 -0.331391
0.202148 0.055521 0.584961 0.0333157 -0.528056 0.848556
0.166992 0.0593106 0.579102 -0.126954 -0.990592 0.0510955
0.172852 0.0592111 0.579102 -0.607204 -0.775542 -0.172734
0.178711 0.057169 0.579102 0.0667143 -0.98573 -0.154547
0.18457 0.0566696 0.579102 -0.0202705 -0.965059 0.261248
0.191952 0.0556641 0.579102 0.711136 -0.233533 0.663135
0.19043 0.0561213 0.579102 0.660179 -0.563883 0.496185
0.198559 0.0556641 0.579102 0.498052 -0.61287 -0.613461
0.196289 0.0604618 0.579102 0.238087 -0.971215 0.00744865
0.196289 0.0556641 0.582624 -0.920816 0.373896 -0.1109
0.202148 0.0614039 0.579102 0.559253 -0.807288 0.188475
0.202148 0.0556641 0.584647 0.0133958 -0.459531 0.888061
0.208008 0.0614532 0.579102 0.887149 -0.441383 -0.134711
0.18457 0.0527165 0.608398 0.866614 -0.455552 -0.203599
0.207652 0.0673828 0.561523 0.850858 -0.460268 -0.253367
0.208008 0.0678855 0.561523 0.873918 -0.368024 -0.317531
0.204329 0.0732422 0.555664 0.914607 -0.224602 -0.336227
0.208008 0.0732422 0.55996 0.868262 0.137018 -0.476808
0.151747 0.0791016 0.555664 -0.595575 -0.73477 -0.324659
0.149414 0.0806369 0.555664 -0.549523 -0.783382 -0.29041
0.149414 0.0791016 0.559469 -0.599175 -0.749512 -0.281462
0.163944 0.0615234 0.573242 -0.77228 -0.386349 -0.504299
0.161133 0.0642886 0.573242 -0.431878 -0.819441 -0.376826
0.149414 0.0783389 0.561523 -0.599927 -0.761196 -0.246308
0.157489 0.0732422 0.561523 -0.545437 -0.799469 -0.251689
0.155273 0.0746423 0.561523 -0.494877 -0.829577 -0.25865
0.155273 0.0732422 0.564262 -0.485882 -0.804883 -0.340708
0.213867 0.0791016 0.568346 0.454051 -0.890359 -0.0331462
0.137695 0.0673828 0.573142 -0.642532 0.297224 0.706265
0.157035 0.0673828 0.567383 -0.737147 -0.466745 -0.488634
0.155273 0.0692408 0.567383 -0.647682 -0.671024 -0.36088
0.166992 0.0597914 0.584961 -0.480082 -0.839671 -0.253916
0.172852 0.0589756 0.584961 -0.304859 -0.937039 -0.170351
0.178711 0.0569818 0.584961 0.14042 -0.954285 0.263862
0.18457 0.0558922 0.584961 0.231276 -0.950364 0.208136
0.194993 0.0615234 0.573242 0.218241 -0.926687 -0.305978
0.196289 0.0633055 0.573242 0.204673 -0.939652 -0.274158
0.202148 0.0627358 0.573242 0.713607 -0.67958 -0.170105
0.202148 0.0615234 0.578788 0.567931 -0.807493 0.159404
0.208008 0.0615234 0.578965 0.887566 -0.44016 -0.135962
0.19043 0.0560453 0.584961 0.203775 -0.940225 -0.272859
0.201452 0.0556641 0.584961 0.0858177 0.124152 0.988545
0.202641 0.0556641 0.584961 0.0122436 -0.758978 0.651001
0.202148 0.0565511 0.584961 -0.568938 -0.610463 0.55104
0.202148 0.0556641 0.586043 -0.314059 -0.413306 0.854719
0.204498 0.0673828 0.567383 0.447145 -0.881432 -0.152115
0.208008 0.0693183 0.567383 0.857351 -0.489671 -0.158659
0.208955 0.0732422 0.561523 0.71988 0.0519222 -0.692154
0.196289 0.0498047 0.600426 0.872674 0.48313 -0.0708854
0.187647 0.0498047 0.614258 -0.58731 -0.113918 0.801305
0.18457 0.0498047 0.619667 -0.8022 -0.595392 0.0445301
0.155273 0.0667689 0.579102 -0.749291 -0.55951 -0.354276
0.163314 0.0615234 0.579102 -0.646752 -0.757877 0.0856408
0.161133 0.0638676 0.579102 -0.449847 -0.861172 -0.236688
0.14861 0.0791016 0.561523 -0.6147 -0.74898 -0.24733
0.143555 0.0834743 0.561523 -0.589459 -0.74612 -0.309587
0.153261 0.0732422 0.567383 -0.541084 -0.779561 -0.315456
0.149414 0.0767742 0.567383 -0.690768 -0.695268 -0.1986
0.212029 0.0791016 0.573242 0.583333 -0.794737 -0.167679
0.166992 0.0605237 0.59082 -0.486056 -0.867103 0.109
0.172852 0.057712 0.59082 -0.160797 -0.983444 0.0835612
0.178711 0.0573575 0.59082 0.324472 -0.938787 -0.115743
0.18457 0.0563337 0.59082 0.488094 -0.796283 0.357348
0.195992 0.0615234 0.579102 0.303055 -0.951681 -0.0496042
0.201389 0.0615234 0.579102 0.519791 -0.847073 0.110835
0.196289 0.0618607 0.579102 0.356996 -0.931725 -0.0666532
0.202148 0.0615234 0.579463 0.58917 -0.791305 0.16345
0.208057 0.0615234 0.579102 0.881342 -0.450693 -0.141819
0.208008 0.0615234 0.579518 0.86632 -0.459301 -0.196296
0.137643 0.0673828 0.573242 -0.660719 0.260882 0.703841
0.137819 0.0673828 0.573242 -0.708936 0.207827 0.673957
0.137695 0.0674937 0.573242 -0.708108 0.218414 0.671475
0.137695 0.0673828 0.573334 -0.692698 0.215752 0.688201
0.156002 0.0673828 0.573242 -0.828677 -0.440942 -0.344767
0.155273 0.0684624 0.573242 -0.777314 -0.543288 -0.317208
0.155273 0.0673828 0.575228 -0.830748 -0.439031 -0.342213
0.19043 0.0579648 0.59082 -0.230057 -0.719253 0.655552
0.196289 0.0574139 0.59082 0.838738 -0.223322 0.496635
0.208008 0.0602871 0.59082 0.0849861 -0.728059 -0.680226
0.213867 0.0607378 0.59082 0.530759 -0.665851 -0.524345
0.206888 0.0673828 0.573242 0.783405 -0.413797 0.463734
0.208008 0.0682459 0.573242 0.713158 -0.436251 0.548717
0.208008 0.0673828 0.576206 0.659983 0.745973 0.089147
0.212236 0.0732422 0.567383 0.993792 0.0923421 0.0620545
0.213867 0.0775844 0.567383 0.830191 -0.557123 -0.0199404
0.192916 0.0498047 0.602539 0.356217 0.92166 -0.153795
0.196722 0.0498047 0.602539 0.961995 -0.0654547 -0.265106
0.196289 0.0502943 0.602539 0.913692 -0.0553367 -0.402621
0.196289 0.0498047 0.60401 0.929871 -0.23113 -0.286214
0.155273 0.0658252 0.584961 -0.543465 -0.830432 -0.122592
0.164752 0.0615234 0.584961 -0.510217 -0.831995 -0.217859
0.161133 0.0638546 0.584961 -0.500388 -0.844343 -0.191565
0.146758 0.0791016 0.567383 -0.5983 -0.786949 -0.150828
0.143555 0.0813915 0.567383 -0.469814 -0.838459 -0.276156
0.212734 0.0791016 0.579102 0.456231 -0.659287 -0.597657
0.166992 0.0610152 0.59668 -0.471393 -0.866658 0.163379
0.172852 0.0581589 0.59668 0.0969609 -0.882495 0.460218
0.178711 0.0566878 0.59668 -0.0547497 -0.927036 0.370955
0.18457 0.0566472 0.59668 0.804083 -0.583012 -0.116396
0.184495 0.0498047 0.620117 -0.729461 -0.683928 -0.01139
0.178711 0.0548733 0.620117 0.486663 -0.855851 -0.175154
0.184744 0.0498047 0.620117 -0.620475 -0.784164 -0.00990658
0.18457 0.0499184 0.620117 -0.715064 -0.696511 -0.0596335
0.18457 0.0498047 0.62046 -0.603425 -0.796461 -0.0390841
0.15013 0.0732422 0.573242 -0.705286 -0.677981 -0.207154
0.149414 0.0741429 0.573242 -0.750977 -0.6312 -0.193958
0.149414 0.0732422 0.574509 -0.739069 -0.629533 -0.239718
0.153674 0.0673828 0.579102 -0.794955 -0.459537 -0.396071
0.149414 0.0714788 0.579102 -0.66266 -0.683535 -0.306043
0.194983 0.0615234 0.584961 0.452745 -0.865858 -0.212868
0.196289 0.0619704 0.584961 0.617932 -0.782032 -0.0811579
0.196289 0.0615234 0.585795 0.622272 -0.782798 -0.00203035
0.202148 0.0626284 0.584961 0.568273 -0.809522 -0.147443
0.208008 0.0615234 0.586972 0.199538 -0.391378 -0.898336
0.213867 0.0615234 0.58972 0.51342 -0.582164 -0.630464
0.196289 0.0598695 0.59668 0.732314 -0.339133 -0.590512
0.208008 0.0591487 0.59668 -0.354369 -0.935096 0.00426973
0.213867 0.0590545 0.59668 0.317568 -0.812409 -0.489022
0.213384 0.0732422 0.573242 0.882943 0.434923 -0.176789
0.208008 0.0732422 0.577465 0.690343 -0.704927 0.162802
0.209898 0.0673828 0.579102 0.534453 0.162795 -0.829372
0.208008 0.0691605 0.579102 0.237843 -0.251002 -0.938312
0.208008 0.0673828 0.582573 0.0723972 -0.167864 -0.983148
0.149414 0.0672076 0.59082 -0.727151 -0.653457 -0.210345
0.155273 0.0659349 0.59082 -0.165819 -0.984105 0.0635681
0.165135 0.0615234 0.59082 -0.495584 -0.868151 0.0266624
0.161133 0.0642365 0.59082 -0.695566 -0.708382 0.119928
0.19043 0.0498047 0.610465 0.553299 0.675384 -0.487561
0.146117 0.0791016 0.573242 -0.543164 -0.819534 -0.182583
0.143555 0.0804714 0.573242 -0.470457 -0.865096 -0.17401
0.143555 0.0791016 0.57861 -0.539801 -0.805854 -0.243338
0.172852 0.058188 0.602539 0.286518 -0.925303 -0.248441
0.178711 0.0577143 0.602539 -0.332707 -0.941737 -0.0493706
0.18457 0.0580184 0.602539 0.788649 -0.603042 -0.119884
0.18457 0.0556641 0.607861 0.0377071 -0.997316 -0.0627549
0.219727 0.0791016 0.586791 0.446737 0.260458 -0.855913
0.225586 0.0791016 0.590267 0.816087 0.477137 -0.326103
0.147724 0.0732422 0.579102 -0.767159 -0.561034 -0.31098
0.143555 0.0788556 0.579102 -0.551119 -0.792971 -0.259741
0.178711 0.0555538 0.625977 0.206614 -0.964159 -0.16646
0.150997 0.0673828 0.584961 -0.749614 -0.587005 -0.305784
0.149414 0.0693952 0.584961 -0.760789 -0.583422 -0.284286
0.149414 0.0673828 0.589189 -0.771532 -0.590344 -0.237133
0.19043 0.0615234 0.59427 -0.153174 -0.93218 0.32799
0.199518 0.0615234 0.59082 0.136183 -0.762272 0.632769
0.206843 0.0615234 0.59082 -0.444167 -0.438967 -0.78104
0.202148 0.064409 0.59082 -0.52843 -0.537775 0.656932
0.21525 0.0615234 0.59082 0.5393 -0.653402 -0.531245
0.219727 0.0656002 0.59082 0.683322 -0.431581 -0.588904
0.196289 0.0596182 0.602539 -0.537503 -0.345488 0.769239
0.202148 0.0592349 0.602539 -0.107543 -0.992731 -0.0540406
0.208008 0.0605401 0.602539 -0.376393 -0.886216 -0.270092
0.213867 0.0574293 0.602539 0.0927641 -0.950468 -0.296656
0.219727 0.0594517 0.602539 0.480785 -0.765196 -0.42816
0.225586 0.060349 0.602539 0.660871 -0.640443 -0.391256
0.206787 0.0732422 0.579102 0.529603 -0.772594 0.350171
0.208008 0.0744179 0.579102 0.825032 -0.419401 0.378714
0.207182 0.0673828 0.584961 0.197764 -0.0232705 -0.979973
0.208008 0.0673828 0.586652 0.156419 0.0961316 -0.983001
0.213867 0.0673828 0.586446 0.328514 -0.031055 -0.943989
0.219727 0.0673828 0.589426 0.60759 -0.290278 -0.739305
0.149414 0.067073 0.59668 -0.35254 -0.933731 0.0621486
0.155273 0.0656291 0.59668 -0.183898 -0.974343 0.129755
0.166304 0.0615234 0.59668 -0.399789 -0.903754 0.152961
0.161133 0.0657942 0.59668 -0.736789 -0.663501 -0.130035
0.166992 0.0615234 0.597373 -0.431986 -0.896374 0.0995108
0.187981 0.0615234 0.59668 0.0476801 -0.8484 0.527204
0.143363 0.0791016 0.579102 -0.562753 -0.789306 -0.245572
0.192173 0.0498047 0.614258 -0.163163 -0.520984 -0.837827
0.19043 0.0518717 0.614258 -0.297952 -0.430325 -0.852083
0.19043 0.0498047 0.615718 -0.521207 -0.775468 -0.356361
0.202148 0.0498047 0.61977 0.435108 -0.823961 -0.363
0.145117 0.0732422 0.584961 -0.665139 -0.680116 -0.308273
0.143555 0.074747 0.584961 -0.640205 -0.703078 -0.309546
0.143555 0.0732422 0.58672 -0.641721 -0.682744 -0.349364
0.172852 0.0588658 0.608398 -0.532674 -0.509102 0.676072
0.183832 0.0556641 0.608398 -0.00423424 -0.998511 0.0543782
0.178711 0.0578241 0.608398 0.832291 -0.496456 0.246623
0.184946 0.0556641 0.608398 -0.0100729 -0.99302 -0.117511
0.18457 0.0556641 0.609211 -0.172098 -0.983696 -0.0521863
0.225823 0.0791016 0.59082 0.756675 0.549701 -0.353937
0.231445 0.0791016 0.595656 0.0645441 0.949272 -0.307761
0.178711 0.0542079 0.631836 0.392597 -0.918763 0.0417324
0.148973 0.0673828 0.59082 -0.760605 -0.610573 -0.220639
0.143555 0.071751 0.59082 -0.6406 -0.752145 -0.154624
0.208008 0.0732422 0.585212 0.180285 0.578663 -0.795391
0.213867 0.0732422 0.586739 -0.126473 0.20243 -0.971096
0.219727 0.0732422 0.588371 0.374559 -0.15497 -0.914161
0.19043 0.0592664 0.608398 0.899803 -0.371293 -0.229122
0.202148 0.0594088 0.608398 -0.276717 -0.274748 -0.920837
0.208008 0.0570767 0.608398 -0.163111 -0.929655 -0.330359
0.213867 0.0577558 0.608398 -0.188528 -0.96708 -0.170919
0.219727 0.0563585 0.608398 0.337136 -0.922947 -0.185763
0.225586 0.057879 0.608398 0.64224 -0.704108 -0.302918
0.195683 0.0615234 0.59668 0.860506 -0.509202 -0.0155937
0.19043 0.0628285 0.59668 -0.128409 -0.417337 0.899634
0.219521 0.0615234 0.59668 0.558483 -0.44335 -0.701098
0.219727 0.0617149 0.59668 0.583197 -0.426281 -0.691495
0.219727 0.0615234 0.596835 0.577215 -0.428172 -0.695336
0.225586 0.0659192 0.59668 0.317641 -0.625688 -0.712473
0.225586 0.0615234 0.598094 0.627564 -0.611465 -0.481947
0.202148 0.0673828 0.59436 -0.965057 -0.22941 -0.126635
0.221535 0.0673828 0.59082 0.561585 -0.470103 -0.6809
0.225586 0.0673828 0.596285 0.366563 -0.534057 -0.76185
0.161133 0.0653162 0.602539 -0.683678 -0.726831 -0.0655864
0.170189 0.0615234 0.602539 0.0631038 -0.998004 -0.00234539
0.166992 0.0636812 0.602539 -0.266934 -0.959767 -0.0871393
0.189159 0.0615234 0.602539 0.1513 0.000196956 -0.988488
0.141095 0.0791016 0.584961 -0.804642 -0.583265 -0.11114
0.137695 0.0836638 0.584961 -0.670315 -0.723947 -0.163029
0.142275 0.0732422 0.59082 -0.833342 -0.543613 -0.100129
0.19043 0.055644 0.620117 -0.492345 -0.519007 -0.698733
0.201516 0.0498047 0.620117 0.40992 -0.830599 -0.376922
0.196289 0.051039 0.620117 -0.179276 -0.871779 -0.455918
0.196289 0.0498047 0.622578 -0.240543 -0.795398 -0.55631
0.202311 0.0498047 0.620117 0.42303 -0.83525 -0.351289
0.208008 0.0535063 0.620117 0.214131 -0.703124 -0.678059
0.219727 0.0537603 0.620117 0.20653 -0.973926 -0.0938774
0.178711 0.0557698 0.614258 0.57651 -0.807414 0.125377
0.178711 0.0556641 0.614648 0.570375 -0.815215 0.100483
0.18457 0.0604783 0.614258 -0.99956 -0.0168278 0.0244237
0.178711 0.0529143 0.637695 0.223032 -0.731662 -0.644148
0.189712 0.0498047 0.637695 -0.201 -0.966473 0.159781
0.148755 0.0673828 0.59668 -0.459065 -0.887878 -0.0305101
0.143555 0.0725555 0.59668 -0.804994 -0.588482 -0.0753229
0.155273 0.0673828 0.602467 -0.409848 -0.907472 -0.0923007
0.233982 0.0791016 0.59668 0.165727 0.933043 -0.319319
0.231445 0.0798236 0.59668 0.00391681 0.956167 -0.292797
0.237305 0.0791016 0.600039 0.251748 0.844586 -0.472545
0.224268 0.0732422 0.59082 0.605712 -0.056547 -0.793672
0.225586 0.0762937 0.59082 0.602936 0.353103 -0.715392
0.225586 0.0732422 0.591416 0.626842 -0.018091 -0.778937
0.231445 0.0732422 0.596672 0.621949 -0.178922 -0.762343
0.19043 0.0571839 0.614258 0.760827 -0.574214 -0.30236
0.19043 0.0556641 0.620084 -0.491134 -0.514756 -0.702719
0.196289 0.0556641 0.616837 0.289377 0.685956 -0.667627
0.202148 0.0563377 0.614258 -0.563722 -0.729735 0.386916
0.202148 0.0556641 0.615606 -0.734925 -0.677193 -0.035983
0.208008 0.0556982 0.614258 0.422469 -0.885309 0.194288
0.208008 0.0556641 0.614381 0.435639 -0.883981 0.169692
0.213867 0.0566297 0.614258 -0.566741 -0.794346 0.218677
0.219727 0.0558835 0.614258 0.267633 -0.95431 -0.132907
0.219727 0.0556641 0.615575 0.245617 -0.961993 -0.119339
0.225586 0.0576504 0.614258 0.289165 -0.831016 -0.47518
0.231445 0.0599008 0.614258 0.545686 -0.480933 -0.686244
0.200996 0.0673828 0.59668 -0.925886 -0.275279 -0.258761
0.204679 0.0673828 0.59668 -0.750325 0.199815 -0.630148
0.226652 0.0673828 0.59668 0.469423 -0.483319 -0.738948
0.231445 0.0732145 0.59668 0.621212 -0.179696 -0.762762
0.231445 0.0673828 0.598586 0.625613 -0.527372 -0.57488
0.192893 0.0615234 0.602539 -0.00245093 -0.942256 0.334884
0.19043 0.0615234 0.604349 0.539361 -0.712817 -0.448311
0.196289 0.0615234 0.604769 -0.204662 -0.949994 -0.235848
0.202148 0.0648516 0.602539 -0.988594 0.0412681 -0.144838
0.227391 0.0615234 0.602539 0.585617 -0.718893 -0.374495
0.231445 0.0655929 0.602539 0.664012 -0.64401 -0.37992
0.155273 0.0671502 0.608398 -0.358631 -0.932285 0.0472032
0.161133 0.0647044 0.608398 -0.573185 -0.776738 0.261031
0.169338 0.0615234 0.608398 0.0470623 -0.553196 0.831721
0.166992 0.0627438 0.608398 0.121618 -0.723187 0.67986
0.172852 0.0615234 0.612432 -0.749376 0.119069 0.651351
0.139696 0.0791016 0.59082 -0.74986 -0.623666 -0.220796
0.137695 0.0811154 0.59082 -0.597928 -0.757154 -0.263059
0.137695 0.0791016 0.595773 -0.671638 -0.701132 -0.23941
0.142841 0.0732422 0.59668 -0.773546 -0.630221 -0.0666902
0.137695 0.078815 0.59668 -0.684112 -0.691785 -0.231137
0.143555 0.0732422 0.598452 -0.796167 -0.593418 -0.118207
0.178711 0.0527387 0.643555 -0.242485 -0.903767 -0.352713
0.18457 0.0533489 0.643555 -0.430412 -0.891612 -0.140618
0.166992 0.0614667 0.620117 0.660074 -0.627884 -0.412388
0.176987 0.0556641 0.620117 -0.035528 -0.969759 -0.241464
0.179831 0.0556641 0.620117 0.124292 -0.966422 -0.2249
0.190417 0.0556641 0.620117 -0.491863 -0.517395 -0.700266
0.18457 0.0594686 0.620117 0.451052 -0.535362 -0.714101
0.147713 0.0673828 0.602539 -0.297235 -0.864591 0.405135
0.155027 0.0673828 0.602539 -0.412161 -0.906455 -0.0919966
0.155355 0.0673828 0.602539 -0.412608 -0.906041 -0.0940429
0.155273 0.0674196 0.602539 -0.411127 -0.906725 -0.0939384
0.155273 0.0673828 0.603234 -0.413887 -0.906985 -0.0779413
0.195268 0.0498047 0.625977 -0.353455 -0.809051 -0.46958
0.19043 0.0540202 0.625977 -0.557637 -0.75772 -0.33897
0.205455 0.0498047 0.625977 0.10088 -0.984947 -0.140368
0.208008 0.0514997 0.625977 -0.118354 -0.963046 -0.24194
0.213867 0.0515565 0.625977 0.673502 -0.732905 -0.0961483
0.219727 0.0551615 0.625977 -0.0582168 -0.998171 -0.0163025
0.225586 0.0504463 0.625977 0.535906 -0.640145 -0.550471
0.225586 0.0498047 0.626277 0.678116 -0.212262 -0.703636
0.249023 0.0498047 0.629023 -0.105594 -0.248625 -0.962827
0.254883 0.0498047 0.628449 -0.0736835 -0.421165 -0.903986
0.260742 0.0556171 0.625977 -0.18211 -0.192853 -0.96418
0.260742 0.0498047 0.62918 0.108112 -0.701578 -0.704344
0.266602 0.0546439 0.625977 0.44655 -0.35455 -0.821516
0.27832 0.0498047 0.629557 -0.0993134 0.159702 -0.982157
0.28418 0.0498047 0.630117 0.173435 0.0206539 -0.984629
0.290039 0.0498047 0.631155 0.258704 0.093497 -0.961421
0.23145 0.0732422 0.59668 0.622051 -0.178506 -0.762357
0.237305 0.0732422 0.601007 0.766839 -0.186694 -0.614087
0.203282 0.0673828 0.602539 -0.795641 0.578889 0.178443
0.233434 0.0673828 0.602539 0.642168 -0.668946 -0.374342
0.237305 0.0712405 0.602539 0.778955 -0.354024 -0.517586
0.231445 0.0812947 0.602539 -0.0961534 0.924744 -0.368243
0.239262 0.0791016 0.602539 0.300514 0.787737 -0.537738
0.237305 0.0801644 0.602539 0.0597485 0.89227 -0.447531
0.243164 0.0791016 0.606185 0.474881 0.596796 -0.646778
0.202148 0.0602125 0.620117 -0.71506 0.521172 -0.465905
0.211303 0.0556641 0.620117 -0.0338993 -0.492915 -0.869417
0.217068 0.0556641 0.620117 0.0133035 -0.998822 -0.0466637
0.213867 0.0591094 0.620117 -0.759966 0.314446 -0.568836
0.213867 0.0556641 0.621497 -0.0378273 -0.919142 -0.392106
0.22239 0.0556641 0.620117 0.140102 -0.986154 -0.088726
0.225586 0.056592 0.620117 -0.0206873 -0.991394 -0.129265
0.225586 0.0556641 0.623994 0.0110649 -0.99045 -0.137426
0.231445 0.0573703 0.620117 0.455373 -0.848858 -0.268469
0.237305 0.0585799 0.620117 0.731805 -0.593969 -0.334159
0.249023 0.057017 0.620117 -0.247362 -0.789089 -0.562272
0.254883 0.0608401 0.620117 0.516128 -0.444545 -0.732115
0.260742 0.0556641 0.625943 -0.18142 -0.188196 -0.96523
0.266602 0.0556641 0.624733 0.440935 -0.353852 -0.824843
0.193356 0.0615234 0.608398 0.0201334 -0.969211 -0.245406
0.200566 0.0615234 0.608398 -0.627356 0.698513 -0.344244
0.196289 0.0644376 0.608398 0.978811 0.0444043 -0.199892
0.229709 0.0615234 0.608398 0.566515 -0.741725 -0.359032
0.231445 0.0630805 0.608398 0.63771 -0.675601 -0.369986
0.231445 0.0615234 0.61219 0.583622 -0.60181 -0.54517
0.161133 0.0652275 0.614258 -0.185815 -0.839941 0.509874
0.166992 0.0623717 0.614258 0.684711 -0.646781 0.335924
0.166992 0.0615234 0.619864 0.673444 -0.643159 -0.364445
0.174743 0.0615234 0.614258 -0.739779 0.446559 0.503301
0.1373 0.0791016 0.59668 -0.68817 -0.691228 -0.220511
0.137695 0.077626 0.602539 -0.725758 -0.65844 -0.19933
0.137695 0.0732422 0.607106 -0.55808 -0.782812 0.275232
0.144696 0.0732422 0.602539 -0.805578 -0.560866 -0.190981
0.143555 0.0746566 0.602539 -0.768906 -0.608668 -0.19572
0.155273 0.0673828 0.609629 -0.323072 -0.94577 0.0338166
0.166992 0.061227 0.625977 0.723711 -0.516916 0.457209
0.178365 0.0556641 0.625977 0.149045 -0.9725 -0.178968
0.172852 0.0609747 0.625977 -0.898944 0.404198 0.168889
0.178965 0.0556641 0.625977 0.142635 -0.977784 -0.153605
0.188206 0.0556641 0.625977 -0.416856 -0.810539 -0.411409
0.18457 0.0581194 0.625977 -0.448036 -0.745669 -0.493195
0.172852 0.0550272 0.649414 -0.716411 -0.600469 -0.355235
0.178711 0.0508999 0.649414 -0.239923 -0.956827 -0.164071
0.18457 0.0509074 0.649414 -0.096744 -0.951223 -0.292941
0.18457 0.0498047 0.655186 -0.0228133 -0.984382 -0.17456
0.238765 0.0732422 0.602539 0.70816 -0.291079 -0.643259
0.192419 0.0498047 0.631836 -0.359774 -0.930335 -0.0709908
0.19043 0.0512078 0.631836 -0.601517 -0.762603 -0.237936
