# .PCD v0.7 - Point Cloud Data file format
VERSION 0.7
FIELDS x y z normal_x normal_y normal_z
SIZE 4 4 4 4 4 4
TYPE F F F F F F
COUNT 1 1 1 1 1 1
WIDTH 829
HEIGHT 1
VIEWPOINT 0 0 0 1 0 0 0
POINTS 829
DATA ascii
-0.196289 0.00601912 1.1123 0.783192 -0.500006 -0.369599
0.00292969 -0.00292969 1.14356 -0.301059 -0.33287 -0.893622
0.0101503 -0.00292969 1.1416 -0.0512134 -0.274738 -0.960154
0.00878906 -0.00184572 1.1416 -0.183514 -0.307641 -0.933638
0.00878906 -0.00292969 1.14209 -0.220459 -0.313763 -0.923554
0.0180831 -0.00292969 1.1416 0.538074 -0.0329351 -0.842254
0.0205078 -0.00292969 1.14273 0.56445 -0.0773534 -0.821835
0.0263672 -0.00292969 1.14716 -0.426087 -0.161942 -0.89007
0.0354161 -0.00292969 1.1416 -0.366067 -0.344733 -0.864381
0.0322266 -0.00292969 1.14444 -0.689922 -0.206408 -0.693833
0.0452242 -0.00292969 1.1416 0.817244 -0.0674137 -0.572335
0.37793 -0.0146484 1.18285 0.282908 0.232929 -0.930434
0.383789 -0.0146484 1.18574 -0.610818 -0.251268 -0.750844
0.394289 -0.0146484 1.18262 0.404525 -0.53738 -0.739988
0.389648 -0.0140172 1.18262 -0.194016 -0.663472 -0.722608
0.389648 -0.0146484 1.18324 -0.168271 -0.715026 -0.678544
0.395602 -0.0146484 1.18262 0.457098 -0.432552 -0.777149
0.401367 -0.0146484 1.18719 0.818458 -0.204086 -0.5371
0.418945 -0.0146484 1.18625 -0.276329 -0.17222 -0.945506
0.424805 -0.0146484 1.18652 0.225139 -0.26434 -0.937783
0.430664 -0.0146484 1.18841 0.267655 -0.246953 -0.93133
0.439446 0.00878906 0.942383 0.234421 -0.937477 0.257262
0.37793 -0.00878906 1.18552 0.476061 0.133362 -0.869242
0.385035 -0.00878906 1.18262 -0.773759 0.298445 -0.558774
0.383789 -0.00878906 1.18492 -0.79741 0.247357 -0.550411
0.398034 -0.00878906 1.18262 0.521839 -0.212623 -0.82612
0.401367 -0.00878906 1.18487 0.877251 -0.0371344 -0.478593
0.418945 -0.00878906 1.18635 -0.387589 0.667776 -0.635492
0.424805 -0.00878906 1.18452 -0.0556353 0.4018 -0.914036
0.430664 -0.00878906 1.18653 -0.0120899 -0.130431 -0.991384
0.436523 -0.00878906 1.18833 0.254995 -0.347095 -0.902498
0.19043 -0.00878906 1.16811 0.188101 -0.0619756 -0.980192
0.196289 -0.00878906 1.16876 0.0293365 0.00825097 -0.999536
0.202148 -0.00878906 1.16894 0.282616 0.0164737 -0.959092
0.406408 -0.0205078 1.18848 0.215194 0.523327 -0.824512
0.407227 -0.0205078 1.18906 0.121346 0.503536 -0.85541
0.417054 -0.0205078 1.18848 -0.461837 -0.0222522 -0.886686
0.413086 -0.0205078 1.19087 -0.542789 0.194212 -0.817106
0.427674 -0.0205078 1.18848 0.241953 -0.305613 -0.920901
0.430664 -0.0148852 1.18848 0.271226 -0.245703 -0.930627
0.430664 -0.0205078 1.1902 0.239958 -0.226382 -0.944019
0.436523 -0.0205078 1.1904 0.0691341 -0.14347 -0.987237
0.442383 -0.0205078 1.19182 0.0985973 -0.2452 -0.964446
0.448242 -0.0205078 1.19256 0.204329 -0.265908 -0.942095
0.454102 -0.0205078 1.19298 -0.259737 -0.156205 -0.952962
0.459961 -0.0205078 1.1911 0.504188 -0.00805864 -0.863557
0.46582 -0.0205078 1.19382 0.105129 0.0396262 -0.993669
0.47168 -0.0205078 1.19425 -0.0167269 -0.000878663 -0.99986
0.477539 -0.0205078 1.19428 0.142195 -0.136887 -0.980328
0.37793 -0.00292969 1.18514 0.428258 0.443868 -0.787132
0.387679 -0.00292969 1.18262 -0.415532 0.76553 -0.49122
0.389648 -0.00134528 1.18262 -0.450364 0.744015 -0.493572
0.430664 -0.00292969 1.18648 -0.065192 -0.439259 -0.895992
0.436523 -0.00292969 1.18586 0.387416 -0.0539338 -0.920326
0.442383 -0.00292969 1.18797 0.425463 -0.0260214 -0.904601
0.0343965 0.00292969 0.924805 0.0100979 -0.520268 0.853943
0.040964 0.00292969 0.924805 0.483083 -0.772699 0.411784
0.137695 0.00607347 0.924805 0.293805 -0.323945 0.899299
-0.55957 -0.0205078 1.14126 -0.242487 0.821024 -0.516836
-0.552482 -0.0205078 1.13574 -0.943543 -0.080308 0.321367
-0.553711 -0.0205078 1.13701 -0.891713 0.451533 -0.0310837
-0.37207 0.00292969 1.1224 -0.165175 -0.0339636 -0.985679
-0.366211 0.00292969 1.12188 0.141007 -0.107622 -0.984141
-0.360352 0.00292969 1.1227 0.340911 0.0483115 -0.938854
-0.354492 0.00292969 1.12361 0.123277 0.00226434 -0.99237
-0.213867 0.0049516 1.11816 -0.158793 -0.903744 -0.397532
-0.20746 0.00292969 1.11816 -0.0944109 -0.941576 -0.323297
-0.208008 0.00310147 1.11816 -0.172821 -0.923925 -0.341314
-0.208008 0.00292969 1.1186 -0.160609 -0.93403 -0.31905
-0.200165 0.00292969 1.11816 0.48674 -0.853164 -0.187601
-0.196289 0.0055877 1.11816 0.862972 -0.381083 0.331744
-0.19043 0.00697482 1.11816 0.86621 -0.452911 0.211075
0.00292969 0.0119544 0.889648 0.0175314 -0.979174 -0.202264
0.012719 0.00878906 0.889648 -0.319305 -0.930092 -0.181586
0.00878906 0.011592 0.889648 -0.0129274 -0.960192 -0.279043
0.120117 0.0128078 0.889648 0.0449636 -0.936284 -0.348354
0.125977 0.0117869 0.889648 0.0630327 -0.931886 -0.357232
0.136904 0.00878906 0.889648 0.387895 -0.864463 -0.319752
0.131836 0.00990963 0.889648 -0.0848876 -0.910597 -0.404485
0.137885 0.00878906 0.889648 0.394536 -0.884653 -0.248458
0.143555 0.0119803 0.889648 -0.0422181 -0.940143 -0.338155
0.149414 0.012262 0.889648 0.025035 -0.912339 -0.40867
0.158858 0.00878906 0.889648 0.202018 -0.645601 -0.73647
0.155273 0.0117545 0.889648 0.134335 -0.804732 -0.578239
0.163576 0.00878906 0.889648 0.347535 -0.877599 -0.330211
0.166992 0.0118353 0.889648 0.14436 -0.896782 -0.418261
0.172852 0.0125259 0.889648 0.119499 -0.873859 -0.471265
0.178711 0.0129085 0.889648 -0.0636179 -0.852725 -0.518472
0.18457 0.0129528 0.889648 -0.0281609 -0.891647 -0.451855
0.0486199 -0.00292969 1.14746 0.282069 -0.0522628 -0.95797
0.0498047 -0.00292969 1.14948 -0.0735995 -0.0435032 -0.996339
0.0556641 -0.00292969 1.14863 0.537538 0.140154 -0.831511
0.0615234 -0.00292969 1.15155 -0.21214 0.114921 -0.970458
0.0673828 -0.00292969 1.15149 0.178346 -0.212256 -0.960802
0.0732422 -0.00292969 1.15326 -0.126674 -0.236531 -0.963331
0.0791016 -0.00292969 1.1517 0.0377881 -0.0859841 -0.99558
0.0849609 -0.00292969 1.15207 0.35357 -0.209901 -0.911554
0.0966797 -0.00292969 1.15197 0.590258 0.032132 -0.806575
0.403005 -0.0146484 1.18848 0.767713 -0.0960824 -0.63355
0.407227 -0.0146484 1.19356 0.253827 -0.00455097 -0.967239
0.417183 -0.0146484 1.18848 -0.658812 0.0018323 -0.752305
0.413086 -0.0146484 1.19286 -0.656286 0.157238 -0.737946
0.431046 -0.0146484 1.18848 0.26234 -0.252859 -0.931257
0.436523 -0.00946307 1.18848 0.257068 -0.328118 -0.908986
0.436523 -0.0146484 1.18972 0.163631 -0.200671 -0.965896
0.442383 -0.0146484 1.18991 0.120432 0.0404381 -0.991898
0.448242 -0.0146484 1.19055 0.315031 0.161781 -0.935191
0.454102 -0.0146484 1.19203 -0.175978 0.253182 -0.951279
0.459961 -0.0146484 1.19125 0.421026 0.158708 -0.893056
0.46582 -0.0146484 1.19405 0.0868535 0.0712193 -0.993672
0.47168 -0.0146484 1.19417 -0.0672538 0.0407544 -0.996903
0.477539 -0.0146484 1.19411 0.0184119 0.0031508 -0.999826
0.483398 -0.0146484 1.19419 0.0539706 -0.104934 -0.993014
0.383789 -0.00359666 1.18848 -0.440817 0.542924 -0.714783
0.404919 -0.00878906 1.18848 0.755131 0.193836 -0.626262
0.407227 -0.00878906 1.19324 0.243574 0.669919 -0.701341
0.417498 -0.00878906 1.18848 -0.55661 0.661936 -0.502022
0.413086 -0.00878906 1.19396 -0.479505 0.623336 -0.61768
0.418945 -0.00690591 1.18848 -0.564836 0.530521 -0.632067
0.424805 -0.00387585 1.18848 -0.57372 -0.130507 -0.808587
0.437006 -0.00878906 1.18848 0.260009 -0.346206 -0.901408
0.442383 -0.00439095 1.18848 0.442083 -0.0619564 -0.894832
0.442383 -0.00878906 1.18999 0.350348 -0.220235 -0.910359
0.448242 -0.00878906 1.19114 0.450483 0.0416725 -0.891812
0.454102 -0.00878906 1.19325 -0.0481654 0.210064 -0.9765
0.459961 -0.00878906 1.19264 0.169823 0.109015 -0.979426
0.46582 -0.00878906 1.19413 0.216292 0.138116 -0.96651
0.47168 -0.00878906 1.19429 -0.222619 0.15176 -0.963021
0.477539 -0.00878906 1.19407 0.005462 0.0207352 -0.99977
0.483398 -0.00878906 1.19423 -0.0749532 -0.0115848 -0.99712
0.489258 -0.00878906 1.19368 0.0445389 -0.0493285 -0.997789
0.495117 -0.00878906 1.19417 0.230098 -0.0508543 -0.971838
0.207808 -0.00878906 1.1709 0.0963089 -0.0453833 -0.994316
0.208008 -0.00878906 1.17096 0.095334 -0.0493037 -0.994224
0.213867 -0.00575912 1.1709 -0.122074 0.0715966 -0.989935
0.213867 -0.00878906 1.17127 -0.122131 -0.105966 -0.986841
0.219727 -0.0077275 1.1709 0.29037 0.029133 -0.956471
0.219727 -0.00878906 1.17105 0.249645 0.00442616 -0.968327
0.225586 -0.00878906 1.17202 0.323312 0.0538493 -0.944759
0.231445 -0.00878906 1.17415 0.427909 -0.025101 -0.903473
0.477672 -0.0205078 1.19434 0.142532 -0.140989 -0.979697
0.483398 -0.0150399 1.19434 0.0658426 -0.116035 -0.99106
0.483398 -0.0205078 1.19615 0.194602 -0.28772 -0.937735
0.489258 -0.0205078 1.19758 0.132097 -0.32147 -0.937661
0.495117 -0.0205078 1.19746 -0.343255 -0.174007 -0.922983
0.500977 -0.0205078 1.19594 0.29916 -0.0977225 -0.949186
0.506836 -0.0205078 1.19661 0.0080032 -0.0435134 -0.999021
0.512695 -0.0205078 1.19698 0.00724758 -0.0102381 -0.999921
0.518555 -0.0205078 1.19695 0.0199915 -0.00845724 -0.999764
0.524414 -0.0205078 1.19713 -0.0928688 0.0574514 -0.99402
0.530273 -0.0205078 1.19605 0.110979 0.217801 -0.969663
0.536133 -0.0205078 1.19641 0.19509 0.32509 -0.925341
0.541992 -0.0205078 1.19767 0.28985 0.297781 -0.909568
0.547852 -0.0205078 1.19998 -0.0357815 0.0700748 -0.9969
0.553711 -0.0205078 1.19948 -0.140491 -0.109111 -0.984051
0.55957 -0.0205078 1.19943 -0.123025 -0.233417 -0.964563
0.383491 -0.00292969 1.18848 -0.369077 0.559169 -0.74237
0.383986 -0.00292969 1.18848 -0.400002 0.589042 -0.702159
0.383789 -0.00292969 1.18865 -0.385569 0.577835 -0.719335
0.405103 -0.00292969 1.18848 0.725659 0.0218817 -0.687706
0.426783 -0.00292969 1.18848 -0.500817 -0.550322 -0.668078
0.424805 -0.00292969 1.1892 -0.660625 -0.230588 -0.714425
0.44321 -0.00292969 1.18848 0.405913 -0.0389662 -0.913081
0.448242 -0.00292969 1.19113 0.439876 -0.22323 -0.869872
0.459961 -0.00292969 1.19369 0.152532 -0.108634 -0.98231
0.46582 -0.00292969 1.19427 0.155094 -0.200798 -0.967278
0.477539 -0.00292969 1.1941 -0.00462847 0.0149148 -0.999878
0.483398 -0.00292969 1.19425 -0.00110585 0.100039 -0.994983
0.489258 -0.00292969 1.19374 -0.0431578 0.150713 -0.987635
0.495117 -0.00292969 1.19385 0.276933 0.11914 -0.953475
0.0615234 0.00262046 1.15332 -0.276293 0.162886 -0.94717
0.0874296 -0.00292969 1.15332 0.0897927 -0.36217 -0.927777
0.0942342 -0.00292969 1.15332 0.270995 -0.0170449 -0.96243
0.0908203 0.00159359 1.15332 -0.00735536 0.223241 -0.974736
0.0908203 -0.00292969 1.15521 -0.321196 -0.207751 -0.923944
0.0986652 -0.00292969 1.15332 0.434715 0.0563347 -0.898804
0.102539 -0.00292969 1.15595 0.0981914 0.194845 -0.975907
0.108398 -0.00292969 1.15553 0.0838719 0.216298 -0.972718
0.114258 -0.00292969 1.15698 -0.283261 -0.0723424 -0.95631
0.120117 -0.00292969 1.15634 0.401629 -0.158692 -0.901948
0.125977 -0.00292969 1.15837 0.0318128 -0.148404 -0.988415
0.131836 -0.00292969 1.15912 0.148765 -0.0381486 -0.988136
0.137695 -0.00292969 1.15874 0.221275 0.0747556 -0.972342
-0.35341 0.00292969 1.12402 0.106204 -0.0564247 -0.992742
-0.354492 0.00457978 1.12402 0.0385054 0.100564 -0.994185
-0.348633 0.00292969 1.12543 0.0482714 -0.0846888 -0.995238
-0.342773 0.00292969 1.12559 -0.0108808 -0.0117824 -0.999871
-0.336914 0.00292969 1.12534 0.0512362 -0.00165597 -0.998685
-0.331055 0.00292969 1.12535 -0.201575 -0.180845 -0.962633
-0.325195 0.00292969 1.12551 0.077013 -0.35267 -0.932573
-0.319336 0.00667644 1.12402 0.0686203 0.0162158 -0.997511
-0.319336 0.00292969 1.12575 0.00931062 -0.218616 -0.975767
-0.313477 0.00527823 1.12402 0.0844307 -0.051841 -0.99508
-0.313477 0.00292969 1.12464 0.0685621 -0.13537 -0.98842
-0.307617 0.00292969 1.12544 0.100093 0.0967602 -0.990262
-0.301758 0.00292969 1.12488 0.182172 0.377388 -0.90796
-0.295898 0.00292969 1.12547 0.540492 0.644709 -0.540572
-0.290039 0.00292969 1.12706 0.384545 0.917694 -0.0998139
-0.28418 0.00292969 1.12588 -0.778619 0.621373 -0.0874573
-0.27832 0.00723994 1.12402 0.740181 0.297692 -0.602919
-0.27832 0.00292969 1.12585 0.652494 0.0120552 -0.757698
-0.272461 0.00292969 1.12608 0.617333 0.318995 -0.719126
-0.249023 0.00292969 1.1291 -0.31016 0.146747 -0.93929
-0.243164 0.00292969 1.12815 -0.024704 -0.0135038 -0.999604
-0.237305 0.00292969 1.12811 -0.0818488 -0.137651 -0.987093
-0.231445 0.00292969 1.12826 0.55813 -0.225158 -0.798621
-0.219727 0.00385582 1.12402 0.143723 -0.960717 -0.237415
-0.219727 0.00292969 1.12942 -0.0113439 -0.976453 -0.215431
-0.211786 0.00292969 1.12402 -0.187156 -0.925882 -0.3282
-0.213867 0.00374329 1.12402 -0.291613 -0.895518 -0.336168
-0.213867 0.00292969 1.12592 -0.279795 -0.906831 -0.315233
-0.197949 0.00292969 1.12402 0.686665 -0.690614 -0.227032
-0.196289 0.00413465 1.12402 0.912745 -0.329649 -0.241306
-0.196289 0.00292969 1.12737 0.787846 -0.424331 -0.446366
0.00292969 0.0116798 0.895508 0.0126018 -0.986277 -0.16462
0.0125753 0.00878906 0.895508 -0.268037 -0.955269 -0.124966
0.00878906 0.0112251 0.895508 -0.101208 -0.972338 -0.210514
0.120117 0.0123624 0.895508 0.0417406 -0.96179 -0.270586
0.125977 0.0115768 0.895508 0.0446941 -0.960902 -0.273258
0.13287 0.00878906 0.895508 -0.269517 -0.92188 -0.278384
0.131836 0.00936282 0.895508 -0.330126 -0.917387 -0.222302
0.140275 0.00878906 0.895508 0.264024 -0.956292 -0.125685
0.143555 0.0111806 0.895508 -0.00299584 -0.976768 -0.214278
0.149414 0.0117666 0.895508 0.009539 -0.958906 -0.283564
0.157785 0.00878906 0.895508 -0.471877 -0.783837 -0.403648
0.155273 0.0108942 0.895508 -0.185021 -0.925662 -0.330024
0.166063 0.00878906 0.895508 0.328546 -0.928195 -0.174677
0.166992 0.00959313 0.895508 0.278943 -0.941773 -0.187763
0.166992 0.00878906 0.898485 0.337032 -0.934993 -0.110444
0.172852 0.0117816 0.895508 0.0977761 -0.943008 -0.318082
0.178711 0.0120585 0.895508 -0.0300529 -0.943228 -0.330783
0.18457 0.0120454 0.895508 -0.0436331 -0.956447 -0.288626
0.483996 -0.0146484 1.19434 0.0567869 -0.122187 -0.990881
0.489258 -0.0106598 1.19434 0.0616519 -0.123151 -0.990471
0.489258 -0.0146484 1.19552 0.125715 -0.218851 -0.967626
0.495117 -0.00944138 1.19434 0.220722 -0.0531063 -0.97389
0.495117 -0.0146484 1.19586 -0.0521558 -0.0787007 -0.995533
0.500977 -0.0146484 1.19524 0.270047 0.102671 -0.957358
0.506836 -0.0146484 1.19604 0.00608739 0.0575608 -0.998323
0.512695 -0.0146484 1.19689 0.0217683 0.0159863 -0.999635
0.518555 -0.0146484 1.19702 -0.0238817 -0.014002 -0.999617
0.524414 -0.0146484 1.19689 0.0805801 0.0474034 -0.99562
0.530273 -0.0146484 1.19726 0.297714 0.250618 -0.921172
0.536133 -0.0146484 1.19823 0.0332614 0.147839 -0.988452
0.541992 -0.0146484 1.19994 -0.046686 -0.207446 -0.977132
0.553711 -0.0146484 1.19878 0.0256456 -0.189568 -0.981533
0.55957 -0.0146484 1.19845 -0.248762 -0.00481746 -0.968553
0.547852 -0.0194695 1.2002 -0.0569341 -0.00838654 -0.998343
0.407227 -0.00623739 1.19434 0.163262 0.638147 -0.752406
0.413086 -0.00835955 1.19434 -0.477068 0.600882 -0.641364
0.418945 -0.00329578 1.19434 -0.719113 0.294855 -0.629235
0.454102 -0.0039463 1.19434 -0.0105275 -0.205043 -0.978696
0.47168 -0.00863504 1.19434 -0.229237 0.142813 -0.962837
0.495632 -0.00878906 1.19434 0.219326 -0.0459101 -0.974571
0.500977 -0.00878906 1.19586 0.267101 -0.0284382 -0.963249
0.506836 -0.00878906 1.19655 -0.00666957 -0.0225317 -0.999724
0.512695 -0.00878906 1.19696 0.000717995 0.00705131 -0.999975
0.518555 -0.00878906 1.197 -0.0233449 0.0169462 -0.999584
0.524414 -0.00878906 1.19686 0.245383 0.131682 -0.960441
0.530273 -0.00878906 1.19821 0.397946 0.183001 -0.898971
0.541992 -0.00878906 1.19844 -0.282954 0.0502815 -0.957815
0.547852 -0.00878906 1.19867 -0.187668 -0.0940044 -0.977724
0.553711 -0.00878906 1.19707 0.296746 -0.0346453 -0.954328
0.55957 -0.00878906 1.19857 -0.130008 0.0489116 -0.990306
0.236904 -0.00878906 1.17676 0.0710713 -0.0294918 -0.997035
0.237305 -0.00306427 1.17676 0.0479122 -0.122272 -0.99134
0.237305 -0.00878906 1.17695 0.0365801 -0.0315922 -0.998831
0.243164 -0.00878906 1.17691 0.0457126 -0.00776726 -0.998924
0.249023 -0.00878906 1.17739 0.141416 -0.0668074 -0.987693
0.254883 -0.00878906 1.17855 0.115272 -0.166252 -0.979322
0.260742 -0.00878906 1.17939 0.144324 -0.081496 -0.986169
0.266602 -0.00878906 1.17955 0.0223516 -0.0127265 -0.999669
0.272461 -0.00878906 1.17993 -0.0858726 -0.0464981 -0.99522
0.27832 -0.00878906 1.17958 0.0572117 -0.0233497 -0.998089
0.28418 -0.00878906 1.17955 -0.0273037 -0.00386928 -0.99962
0.290039 -0.00878906 1.17919 -0.00147325 0.0168304 -0.999857
0.295898 -0.00878906 1.17926 -0.0336848 0.0261928 -0.999089
0.301758 -0.00878906 1.1793 0.118274 0.0928507 -0.98863
0.307617 -0.00878906 1.17949 -0.0874731 0.088687 -0.992211
0.313477 -0.00878906 1.17965 -0.0319164 -0.0938118 -0.995078
0.319336 -0.00878906 1.17977 0.0625239 -0.0882519 -0.994134
0.325195 -0.00878906 1.17979 0.328724 0.0615144 -0.942421
0.331055 -0.00878906 1.18176 0.285336 0.0545644 -0.956873
0.40658 -0.00292969 1.19434 0.682499 0.0229257 -0.730527
0.413086 -0.00292969 1.19904 -0.220823 0.102987 -0.969861
0.419274 -0.00292969 1.19434 -0.71094 0.287858 -0.641641
0.418945 -0.00292969 1.19477 -0.717709 0.27513 -0.639685
0.453784 -0.00292969 1.19434 0.0395738 -0.287205 -0.957051
0.455701 -0.00292969 1.19434 0.0517708 -0.243219 -0.968589
0.454102 -0.00241971 1.19434 0.0250674 -0.296189 -0.9548
0.454102 -0.00292969 1.19455 0.012333 -0.280402 -0.959803
0.466138 -0.00292969 1.19434 0.140995 -0.220945 -0.965041
0.476773 -0.00292969 1.19434 -0.0211983 0.0096687 -0.999729
0.47168 0.00153506 1.19434 0.0427259 0.318852 -0.946841
0.47168 -0.00292969 1.19605 -0.1485 -0.215434 -0.965161
0.477539 0.000194788 1.19434 0.00151792 0.228165 -0.973621
0.483398 0.000298619 1.19434 0.0623373 0.195859 -0.978649
0.489258 -0.00130665 1.19434 -0.0481418 0.122455 -0.991306
0.496696 -0.00292969 1.19434 0.225893 0.125338 -0.966055
0.495117 0.00180852 1.19434 0.315697 0.0498861 -0.947548
0.500977 -0.00292969 1.19562 0.215527 0.104467 -0.970894
0.506836 -0.00292969 1.19656 -0.0108163 0.0490452 -0.998738
0.512695 -0.00292969 1.19706 -0.0333988 -0.0205075 -0.999232
0.518555 -0.00292969 1.19679 0.0249686 -0.0159964 -0.99956
0.524414 -0.00292969 1.19704 0.258863 -0.0824471 -0.962389
0.530273 -0.00292969 1.19943 0.355524 -0.103744 -0.928891
0.547852 -0.00292969 1.19765 -0.0968989 0.0188367 -0.995116
0.553711 -0.00292969 1.19668 0.344465 0.166703 -0.92388
0.55957 -0.00292969 1.19842 0.0731143 0.296897 -0.952106
0.139237 -0.00292969 1.15918 0.280858 0.0623755 -0.95772
0.137695 0.00170159 1.15918 0.246331 -0.117502 -0.962036
0.143555 -0.00292969 1.1603 0.351697 0.0738029 -0.9332
0.149414 -0.00292969 1.1628 0.42519 0.0812536 -0.90145
0.166992 -0.00292969 1.16479 0.0133216 0.00149448 -0.99991
0.172852 -0.00292969 1.16465 0.0258729 0.0225637 -0.999411
0.178711 -0.00292969 1.16481 0.0373505 0.00847233 -0.999266
-0.512695 0.00878906 1.10039 0.220761 0.464959 -0.857367
0.536133 -0.00987637 1.2002 -0.129375 0.163077 -0.978094
0.543038 -0.0146484 1.2002 -0.0645221 -0.237951 -0.969132
0.550702 -0.0146484 1.2002 -0.110347 -0.424777 -0.898548
0.547852 -0.0120503 1.2002 -0.105407 -0.241907 -0.964557
0.547852 -0.0146484 1.20106 -0.0457043 -0.356423 -0.933206
-0.290039 0.00451303 1.12988 0.635593 0.771666 0.0235167
-0.28418 0.00374568 1.12988 -0.755119 0.644575 0.119656
-0.267389 0.00292969 1.12988 0.819818 0.519223 0.241467
-0.266602 0.00292969 1.13077 0.740142 0.658144 0.137974
-0.260742 0.00292969 1.13456 -0.548076 0.713188 -0.437007
-0.250303 0.00292969 1.12988 -0.404501 0.192706 -0.894004
-0.254883 0.00292969 1.13249 -0.560051 0.389812 -0.73102
-0.249023 0.00515366 1.12988 -0.390853 0.242367 -0.887971
-0.228834 0.00292969 1.12988 -0.779909 -0.121835 -0.61392
-0.220759 0.00292969 1.12988 -0.130363 -0.975405 -0.177739
-0.225586 0.00870097 1.12988 -0.99855 0.0120406 -0.0524753
-0.225586 0.00292969 1.13204 -0.772346 -0.63507 -0.0129751
-0.191633 0.00292969 1.12988 0.306068 0.199728 -0.930823
-0.19043 0.00292969 1.13063 -0.0491229 0.233028 -0.971228
0.00292969 0.011431 0.901367 -0.00262732 -0.606939 0.794744
0.0123768 0.00878906 0.901367 -0.0621361 -0.568128 0.820591
0.00878906 0.0108296 0.901367 -0.0587213 -0.562763 0.82453
0.0146484 0.00878906 0.902998 0.0245333 -0.717377 0.696253
0.0205078 0.00878906 0.902968 -0.0459233 -0.693204 0.719277
0.0263672 0.00878906 0.903487 -0.843977 0.00552757 0.53635
0.120117 0.0120181 0.901367 0.0437922 -0.97693 -0.209022
0.125977 0.0112097 0.901367 0.00552641 -0.979151 -0.203061
0.133431 0.00878906 0.901367 -0.261641 -0.896885 -0.35657
0.131836 0.00988519 0.901367 -0.335387 -0.899002 -0.281623
0.14122 0.00878906 0.901367 0.259026 -0.962816 -0.0767545
0.143555 0.0105491 0.901367 0.074652 -0.989812 -0.121242
0.149414 0.0115724 0.901367 -0.00959322 -0.97916 -0.202865
0.158147 0.00878906 0.901367 -0.474684 -0.867311 -0.149824
0.155273 0.0110717 0.901367 -0.115843 -0.958196 -0.261611
0.16781 0.00878906 0.901367 0.331591 -0.942787 -0.0346499
0.172852 0.0113306 0.901367 0.0627777 -0.974892 -0.213648
0.178711 0.0114794 0.901367 -0.00517978 -0.966665 -0.255991
0.18457 0.0114565 0.901367 -0.0303557 -0.974609 -0.221846
-0.18457 0.00878906 1.13243 0.158051 0.729845 -0.665092
-0.178711 0.00878906 1.13266 -0.248558 0.780806 -0.573202
-0.172852 0.00878906 1.13028 0.319281 0.509377 -0.799121
-0.166992 0.00878906 1.13248 0.228447 0.543058 -0.808022
-0.161133 0.00878906 1.13441 0.0330457 0.72899 -0.683726
-0.155273 0.00878906 1.13416 0.0229362 0.644562 -0.764208
-0.149414 0.00878906 1.13495 -0.106479 0.780532 -0.61598
-0.143555 0.00878906 1.13311 0.202519 0.580368 -0.788771
-0.137695 0.00878906 1.13466 0.316509 0.470369 -0.823757
0.535161 -0.00878906 1.2002 -0.0265804 0.153533 -0.987786
0.537695 -0.00878906 1.2002 -0.198166 0.166447 -0.965933
0.536133 -0.00878906 1.20064 -0.103895 0.145075 -0.983951
0.541992 -0.00377536 1.2002 -0.4314 0.0111269 -0.902092
0.334026 -0.00878906 1.18262 0.176816 -0.00926387 -0.9842
0.336914 -0.00878906 1.18352 0.0272514 -0.0123635 -0.999552
0.342773 -0.00878906 1.18341 0.0288945 -0.0282971 -0.999182
0.348633 -0.00878906 1.18358 -0.0102165 -0.083029 -0.996495
0.354492 -0.00878906 1.18378 -0.209984 -0.387251 -0.897744
0.360352 -0.00755656 1.18262 0.202368 -0.296921 -0.933212
0.360352 -0.00878906 1.18362 0.072144 -0.429558 -0.900153
0.366211 -0.00821006 1.18262 0.001365 -0.295418 -0.955367
0.366211 -0.00878906 1.18274 0.0406916 -0.387922 -0.920793
0.37207 -0.00569105 1.18262 0.525402 0.202386 -0.826434
0.37207 -0.00878906 1.18453 0.269486 -0.265177 -0.925774
0.154915 -0.00292969 1.16504 -0.0284167 0.0031383 -0.999591
0.155273 -0.00292969 1.16526 -0.0674643 0.00346259 -0.997716
0.162505 -0.00292969 1.16504 -0.0261837 -0.0165684 -0.99952
0.161133 -0.00292969 1.16511 -0.0374039 -0.00950483 -0.999255
0.18419 -0.00292969 1.16504 0.276241 -0.0400258 -0.960255
0.18457 -0.00292969 1.16506 0.292045 -0.0456617 -0.955314
-0.530273 0.00878906 1.10142 0.184965 0.679501 -0.709976
-0.524414 0.00878906 1.10138 -0.231244 0.646962 -0.726613
-0.513201 0.00878906 1.10059 0.192144 0.550578 -0.81237
-0.518555 0.00878906 1.10184 0.134869 0.762494 -0.632783
-0.512257 0.00878906 1.10059 0.213672 0.47497 -0.853667
-0.506836 0.00878906 1.10263 0.617419 0.441328 -0.651171
0.53211 -0.00292969 1.2002 0.219359 -0.121481 -0.968052
0.536133 -0.00292969 1.20175 0.0332089 -0.0871762 -0.995639
0.542511 -0.00292969 1.2002 -0.412478 0.00760008 -0.910936
0.541992 -0.00292969 1.20043 -0.437117 0.00972192 -0.899352
-0.290039 0.0075326 1.13574 -0.100549 0.671608 -0.734052
-0.28418 0.00422573 1.13574 -0.232689 0.55663 -0.797508
-0.260742 0.00324845 1.13574 -0.499323 0.596736 -0.628158
-0.254883 0.00680375 1.13574 -0.712396 0.482943 -0.509174
0.0291127 0.00878906 0.907227 -0.482831 0.87545 -0.0214834
0.120117 0.0118567 0.907227 0.0328072 -0.988834 -0.145364
0.125977 0.0109626 0.907227 -0.0477311 -0.9881 -0.146221
0.132635 0.00878906 0.907227 -0.413389 -0.882451 -0.224477
0.131836 0.00936115 0.907227 -0.437133 -0.876272 -0.20264
0.141807 0.00878906 0.907227 0.25898 -0.964568 -0.0503759
0.143555 0.0101529 0.907227 0.124965 -0.987941 -0.0914118
0.149414 0.0116738 0.907227 -0.00596472 -0.983408 -0.181312
0.158729 0.00878906 0.907227 -0.300002 -0.944872 0.131211
0.155273 0.0111525 0.907227 -0.0514429 -0.983649 -0.172591
0.168743 0.00878906 0.907227 0.251198 -0.966251 -0.0570765
0.172852 0.0116739 0.907227 0.0863901 -0.966964 -0.239828
0.178711 0.0108497 0.907227 0.0179206 -0.980459 -0.195906
0.18457 0.0109456 0.907227 -0.012322 -0.983045 -0.18295
-0.13521 0.00878906 1.13574 0.256743 0.499622 -0.827322
-0.131836 0.00878906 1.13707 0.257397 0.600878 -0.756765
-0.125977 0.00878906 1.13855 0.328983 0.468334 -0.82002
-0.120117 0.00878906 1.14102 0.15647 0.612751 -0.774631
-0.108398 0.00878906 1.1416 -0.379685 0.809867 -0.447163
-0.102539 0.00878906 1.13747 0.423092 0.390792 -0.817481
-0.0966797 0.00878906 1.14051 0.0677354 0.673247 -0.736308
-0.0908203 0.00878906 1.14103 0.060204 0.675201 -0.735173
-0.0849609 0.00878906 1.1415 -0.00643989 0.708789 -0.705392
-0.0791016 0.00878906 1.1415 0.578586 0.578586 -0.574871
-0.0673828 0.00878906 1.14134 -0.0829394 0.742322 -0.664891
-0.0615234 0.00878906 1.14068 -0.0207035 0.719004 -0.694697
-0.0556641 0.00878906 1.14052 0.122798 0.646315 -0.753126
-0.0498047 0.00878906 1.14138 -0.0810343 0.74154 -0.665997
-0.0439453 0.00878906 1.14074 -0.0438719 0.307582 -0.95051
-0.0146484 0.00878906 1.14159 -0.0714209 0.727773 -0.682089
-0.00878906 0.00878906 1.14122 0.0251907 0.710195 -0.703555
-0.00292969 0.00878906 1.14117 -0.302615 0.807106 -0.506956
-0.501214 0.00878906 1.10645 0.75199 -0.644967 -0.13612
-0.500977 0.00878906 1.10777 0.735018 -0.64867 -0.197422
-0.459961 0.00878906 1.11152 0.317284 0.551993 -0.771125
-0.290039 0.00665283 1.1416 -0.821154 0.558628 -0.116792
-0.260742 0.00839472 1.1416 -0.0622707 0.842047 -0.535797
-0.117284 0.00878906 1.1416 0.0759508 0.621051 -0.780082
-0.10845 0.00878906 1.1416 -0.378715 0.809007 -0.449536
-0.114258 0.00878906 1.14222 0.00325108 0.731598 -0.681729
-0.0400536 0.00878906 1.1416 0.110492 0.0668566 -0.991626
-0.0380859 0.00878906 1.14204 0.299659 0.305864 -0.903688
-0.0322266 0.00878906 1.14187 0.087775 0.654872 -0.750625
-0.0263672 0.00878906 1.14261 -0.0391079 0.725779 -0.686815
-0.0147632 0.00878906 1.1416 -0.0716909 0.7284 -0.681391
-0.0205078 0.00878906 1.14228 -0.0785362 0.742941 -0.664734
-0.214484 0.00878906 1.09473 0.887672 0.204836 -0.412408
-0.211669 0.00878906 1.09473 0.847345 0.259101 -0.463544
-0.202148 0.00878906 1.09882 0.0660881 0.83763 -0.542225
-0.196289 0.00878906 1.09729 0.743054 -0.33556 -0.579026
0.120117 0.0117152 0.913086 0.298462 -0.400813 0.866181
0.125977 0.0111332 0.913086 -0.678294 -0.384929 0.625897
0.132308 0.00878906 0.913086 -0.319656 -0.721812 0.613846
0.131836 0.00914001 0.913086 -0.21683 -0.813133 0.540184
0.142005 0.00878906 0.913086 0.366838 -0.827089 0.425856
0.143555 0.0100288 0.913086 0.172872 -0.759932 0.626592
0.149414 0.0115856 0.913086 -0.00139978 -0.588273 0.808661
0.161025 0.00878906 0.913086 -0.496068 -0.726687 0.47523
0.155273 0.0111644 0.913086 -0.0170884 -0.576563 0.816874
0.161133 0.00878906 0.913179 -0.510012 -0.725072 0.462772
0.169112 0.00878906 0.913086 0.141413 -0.974959 -0.171629
0.172852 0.0114599 0.913086 0.0535038 -0.971164 -0.232332
0.178711 0.0103148 0.913086 0.0319195 -0.987424 -0.154839
0.18457 0.0104637 0.913086 0.00049606 -0.989414 -0.145119
-0.290039 0.0076946 1.14746 -0.863427 0.499758 0.0688235
-0.500421 0.00878906 1.1123 0.798811 -0.396399 -0.452513
-0.489258 0.00878906 1.11592 0.0971076 0.775217 -0.624187
-0.483398 0.00878906 1.11541 0.0199038 0.71975 -0.693948
-0.477539 0.00878906 1.11562 -0.018793 0.714767 -0.69911
-0.47168 0.00878906 1.11594 -0.0998941 0.767356 -0.633392
-0.461957 0.00878906 1.1123 0.052743 0.79438 -0.605127
-0.46582 0.00878906 1.11449 -0.245511 0.809546 -0.533254
-0.456929 0.00878906 1.1123 0.403112 0.451579 -0.795975
-0.454102 0.00878906 1.11353 0.598321 0.308632 -0.739431
-0.448242 0.00878906 1.11802 -0.0286474 0.575177 -0.817527
-0.436523 0.00878906 1.11807 -0.197372 0.83099 -0.520096
-0.430664 0.00878906 1.11485 0.467866 0.54698 -0.694201
-0.424805 0.00878906 1.11731 0.148997 0.457783 -0.87649
0.19043 -0.00292969 1.16709 0.288004 -0.0414802 -0.95673
0.196289 -0.00292969 1.16875 0.190253 0.14594 -0.970827
0.202148 -0.00292969 1.16903 0.274814 0.264278 -0.924465
0.213867 -0.00292969 1.17053 -0.0442415 0.240543 -0.96963
0.219727 -0.00292969 1.17016 0.250699 0.151227 -0.95618
-0.214827 0.00878906 1.10059 0.611311 0.307892 -0.729042
-0.210046 0.00878906 1.10059 0.205333 0.482628 -0.851415
-0.204422 0.00878906 1.10059 -0.0477607 0.801858 -0.595603
-0.208008 0.00878906 1.1034 -0.291798 0.65426 -0.697708
-0.202148 0.0103594 1.10059 0.151201 0.729966 -0.666549
-0.195296 0.00878906 1.10059 0.736215 -0.509078 -0.4459
-0.196289 0.0104759 1.10059 0.0545258 -0.336322 -0.940167
0.132449 0.00878906 0.918945 -0.479164 0.659275 0.579447
0.131836 0.00931752 0.918945 -0.342381 0.29741 0.891248
0.142711 0.00878906 0.918945 0.72821 -0.685161 0.0162868
0.166923 0.00878906 0.918945 0.0291839 -0.748267 0.662755
0.167195 0.00878906 0.918945 0.0319182 -0.752374 0.657963
0.172852 0.00998187 0.918945 -0.00205357 -0.666929 0.745119
0.178711 0.00983417 0.918945 -0.300181 -0.855163 0.422596
0.18457 0.0101691 0.918945 0.348833 -0.841772 0.41199
-0.290039 0.00621486 1.15332 -0.773755 0.622656 0.116629
0.207181 -0.00292969 1.1709 -0.012787 0.282577 -0.95916
0.202148 0.00263512 1.1709 0.276162 -0.21822 -0.93601
0.210819 -0.00292969 1.1709 -0.0558113 0.169283 -0.983986
0.208008 -0.00292969 1.17114 -0.056054 0.263922 -0.962914
0.213867 -0.00123048 1.1709 0.0025819 0.188486 -0.982073
0.221533 -0.00292969 1.1709 0.21933 0.0737431 -0.97286
0.219727 8.05855e-005 1.1709 0.108063 0.0781593 -0.991067
0.225586 -0.00292969 1.17249 0.17142 -0.0656881 -0.983006
0.231445 -0.00292969 1.174 0.433649 -0.126595 -0.892145
0.237305 -0.00292969 1.17675 0.0490431 -0.124295 -0.991033
-0.497327 0.00878906 1.11816 -0.144445 0.470361 -0.870572
-0.492676 0.00878906 1.11816 -0.180714 0.897874 -0.401452
-0.495117 0.00878906 1.11997 -0.234297 0.840104 -0.489214
-0.447954 0.00878906 1.11816 -0.0516797 0.589743 -0.805936
-0.436938 0.00878906 1.11816 -0.190978 0.821687 -0.536989
-0.442383 0.00878906 1.11933 -0.175268 0.774315 -0.608044
-0.423321 0.00878906 1.11816 0.319683 0.523799 -0.789581
-0.418945 0.00878906 1.11946 0.794198 -0.161385 -0.585837
-0.395508 0.00878906 1.12272 0.00104332 0.7151 -0.699021
-0.389648 0.00878906 1.12325 0.381965 0.469947 -0.795772
-0.37793 0.00878906 1.12221 0.102856 0.666613 -0.738273
0.133099 0.00878906 0.924805 -0.198789 -0.279783 0.939257
0.143157 0.00878906 0.924805 0.287269 -0.900327 0.326936
0.18457 0.0112497 0.924805 0.535383 -0.631596 0.56076
-0.266602 0.00781429 1.15918 -0.597104 0.566209 -0.56822
-0.215641 0.00878906 1.10645 -0.335295 0.449385 -0.828028
-0.193498 0.00878906 1.10645 0.831579 -0.487147 -0.266765
-0.196289 0.0139545 1.10645 0.490013 0.408515 -0.770067
0.430664 0.00366473 1.18262 -0.192945 -0.0968974 -0.976413
0.430664 0.00292969 1.18296 -0.120523 -0.12651 -0.984616
0.436523 0.00872779 1.18262 0.726206 -0.0391752 -0.68636
0.436523 0.00292969 1.18502 0.607095 -0.137777 -0.782593
0.442383 0.00292969 1.1884 0.211238 -0.223632 -0.951508
0.19043 0.00292969 1.16647 0.258239 0.0835255 -0.962463
0.196289 0.00292969 1.16868 0.228913 -0.0963064 -0.968671
0.237746 -0.00292969 1.17676 0.0474327 -0.120801 -0.991543
0.243164 -0.00231898 1.17676 0.013485 -0.154316 -0.98793
0.243164 -0.00292969 1.17682 0.0251279 -0.155565 -0.987506
0.249023 -0.000167012 1.17676 -0.18413 -0.362099 -0.913773
0.249023 -0.00292969 1.1774 -0.073098 -0.319121 -0.944891
0.254883 -0.00144601 1.17676 0.0527751 -0.418052 -0.906889
0.254883 -0.00292969 1.17748 0.055972 -0.441789 -0.895371
0.260742 0.00108349 1.17676 0.46347 -0.233453 -0.854807
0.260742 -0.00292969 1.17859 0.371221 -0.320835 -0.871355
0.266602 -0.00292969 1.17968 0.0711856 -0.0772586 -0.994467
0.272461 -0.00292969 1.17958 -0.0895079 0.00205706 -0.995984
0.27832 -0.00292969 1.17943 0.0797548 -0.000221441 -0.996814
0.28418 -0.00292969 1.17958 -0.0380673 -0.00424615 -0.999266
0.290039 -0.00292969 1.17951 -0.00911964 -0.0393061 -0.999186
0.295898 -0.00292969 1.17949 -0.0175509 -0.0366359 -0.999174
0.301758 -0.00292969 1.17963 0.135136 -0.0615891 -0.988911
0.307617 -0.00292969 1.1807 -0.0997886 -0.0706644 -0.992496
0.313477 -0.00292969 1.17969 0.155316 0.254221 -0.954593
0.319336 -0.00292969 1.17877 0.160046 0.503745 -0.848897
0.325195 -0.00292969 1.17996 0.197882 0.398966 -0.895359
0.331055 -0.00292969 1.18241 0.0908167 0.210614 -0.973342
0.360352 -0.00292969 1.18009 0.531069 0.160666 -0.831957
0.366211 -0.00292969 1.18087 -0.105131 0.653589 -0.749512
0.37207 -0.00292969 1.18148 0.601542 0.499016 -0.623803
-0.415374 0.00878906 1.12402 0.215692 0.0982541 -0.971506
-0.413086 0.00878906 1.12685 -0.124411 0.804535 -0.580728
-0.407227 0.00878906 1.12458 0.0560373 0.598649 -0.799049
-0.397501 0.00878906 1.12402 -0.0831939 0.875909 -0.475249
-0.401367 0.00878906 1.12587 0.0362452 0.789654 -0.612481
-0.387098 0.00878906 1.12402 -0.13598 0.396832 -0.907763
-0.381413 0.00878906 1.12402 -0.205052 0.831261 -0.516681
-0.383789 0.00878906 1.12586 -0.387711 0.769378 -0.507679
-0.216527 0.00878906 1.1123 -0.889499 0.426512 -0.16395
-0.191548 0.00878906 1.1123 0.847762 -0.418608 -0.325678
-0.19043 0.00878906 1.11407 0.84675 -0.514904 -0.133747
0.20189 0.00292969 1.1709 0.263629 -0.238371 -0.934708
0.202148 0.003389 1.1709 0.265357 -0.180616 -0.947082
0.202148 0.00292969 1.17099 0.270697 -0.243639 -0.931323
0.208008 0.00292969 1.17268 0.0830649 -0.119907 -0.989304
0.213867 0.00292969 1.17171 -0.0707473 0.0314799 -0.996997
0.219727 0.00292969 1.17169 0.158487 -0.0207831 -0.987142
0.225586 0.00292969 1.17253 0.214684 0.199692 -0.956051
0.231445 0.00292969 1.173 0.367022 0.222988 -0.90309
0.237305 0.00292969 1.17606 -0.00944046 0.0736473 -0.99724
0.243164 0.00292969 1.17623 -0.174444 -0.143249 -0.974191
0.249023 0.00292969 1.17601 -0.318177 -0.388311 -0.864857
0.254883 0.00796771 1.1709 0.530902 0.164497 -0.831314
0.254883 0.00292969 1.17449 0.256984 -0.360631 -0.896607
0.260742 0.00292969 1.17588 0.455193 -0.18627 -0.870691
0.19043 0.00878906 1.16755 0.144725 0.600774 -0.786209
0.196289 0.00878906 1.16866 0.0932683 0.614131 -0.783674
0.202148 0.00878906 1.16967 0.196506 0.562637 -0.80301
0.254883 0.00878906 1.17035 0.536125 0.217455 -0.815649
0.28418 0.0143557 1.16504 -0.963035 0.0329946 0.267347
0.290039 0.0135009 1.16504 0.930471 -0.145942 -0.336042
0.383789 0.00292969 1.19083 -0.0724659 0.814281 -0.57593
0.426183 0.00292969 1.18848 -0.486265 0.869752 -0.0841348
0.424805 0.00292969 1.19081 -0.278079 0.922934 -0.266205
0.44258 0.00292969 1.18848 0.208179 -0.235343 -0.949355
0.442383 0.00412703 1.18848 0.154844 -0.0786269 -0.984805
0.448242 0.00292969 1.1907 0.334477 -0.52422 -0.783146
0.454102 0.00860834 1.18848 -0.276332 0.00871145 -0.961023
0.454102 0.00292969 1.19141 0.0882079 -0.553952 -0.827863
0.459961 0.00292969 1.19313 0.310169 -0.391133 -0.866493
0.46582 0.00292969 1.19411 0.377747 0.0676371 -0.923435
0.47168 0.00292969 1.19386 0.0299914 0.447721 -0.89367
-0.295898 0.00825858 1.1709 -0.204549 0.75541 -0.622507
0.325195 0.00135648 1.18262 0.0695491 0.506502 -0.859429
0.332179 -0.00292969 1.18262 0.0695941 0.148461 -0.986466
0.331055 -0.00196242 1.18262 0.0308533 0.253046 -0.966962
0.336914 -0.00292969 1.18351 -0.00515173 0.00611796 -0.999968
0.342773 -0.00292969 1.18327 -0.262049 -0.299463 -0.917416
0.348633 -0.0014689 1.18262 0.0709843 -0.104715 -0.991966
0.348633 -0.00292969 1.18331 0.0423081 -0.458395 -0.887741
0.355595 -0.00292969 1.18262 -0.137207 -0.144595 -0.979932
0.354492 -0.00142515 1.18262 -0.189979 0.0669379 -0.979504
0.354492 -0.00292969 1.18329 -0.278838 -0.219868 -0.93483
0.374129 -0.00292969 1.18262 0.379005 0.516709 -0.767702
-0.37207 0.00878906 1.1226 -0.166563 0.761362 -0.626566
-0.366211 0.00878906 1.12114 0.147517 0.643197 -0.751357
-0.360352 0.00878906 1.12219 0.382538 0.476294 -0.791713
-0.319336 0.00878906 1.1229 -0.173889 0.210635 -0.961975
-0.313477 0.00878906 1.12333 0.260965 0.0921408 -0.960941
-0.188886 0.00878906 1.11816 0.40669 -0.912822 -0.0368799
-0.19043 0.00878906 1.12113 0.322135 -0.94313 -0.082067
0.430664 0.00878906 1.18092 0.0646146 0.632748 -0.771657
0.436523 0.00878906 1.1826 0.726607 -0.0422558 -0.685752
0.237305 0.00770962 1.17676 -0.284928 0.171015 -0.94317
0.263126 0.00292969 1.17676 0.423898 -0.183775 -0.886869
0.266602 0.00292969 1.17829 0.216294 -0.159171 -0.963266
0.272461 0.00292969 1.17959 -0.052587 -0.0881566 -0.994717
0.27832 0.00292969 1.17945 0.0875466 -0.041231 -0.995307
0.28418 0.00292969 1.17958 -0.238796 -0.231582 -0.943052
0.290039 0.00764263 1.17676 0.626772 -0.53251 -0.56885
0.290039 0.00292969 1.17948 -0.00547632 -0.397287 -0.917678
0.295898 0.00292969 1.17924 0.334662 -0.0385255 -0.94155
0.301758 0.00292969 1.17937 -0.177214 0.0371552 -0.983471
0.307617 0.00292969 1.17992 -0.0855712 -0.233595 -0.968561
0.313477 0.00292969 1.1796 0.61904 0.115188 -0.776866
0.319336 0.00292969 1.1823 0.31777 0.354867 -0.879256
0.348633 0.00292969 1.18065 -0.31619 0.749193 -0.582008
0.354492 0.00292969 1.18057 -0.0766452 0.740693 -0.667457
0.360352 0.00292969 1.18036 0.601468 0.601468 -0.525807
0.20624 0.00878906 1.1709 0.194135 0.609856 -0.768366
0.208008 0.00878906 1.17132 0.219107 0.622977 -0.750927
0.213867 0.00878906 1.17246 -0.132885 0.74454 -0.654218
0.219727 0.00878906 1.17165 0.17056 0.637123 -0.751654
0.225586 0.00878906 1.17262 0.311562 0.448919 -0.837497
0.231445 0.00878906 1.17507 0.258502 0.532914 -0.805717
0.243164 0.00878906 1.176 -0.236295 -0.0561497 -0.970058
0.254117 0.00878906 1.1709 0.377434 0.497466 -0.781071
0.249023 0.00878906 1.1744 -0.137047 0.615699 -0.775973
0.255654 0.00878906 1.1709 0.507259 0.230085 -0.830511
0.260742 0.00878906 1.17432 0.413503 0.386404 -0.824443
0.290039 0.011802 1.1709 0.937081 -0.150336 -0.315084
0.290039 0.00878906 1.17624 0.762646 -0.502331 -0.407474
0.413086 0.00292969 1.19995 -0.0496046 0.806284 -0.589445
0.421196 0.00292969 1.19434 -0.293655 0.809479 -0.508439
0.418945 0.00292969 1.1965 -0.331421 0.800862 -0.498778
0.424805 0.00555229 1.19434 0.0159059 0.675077 -0.737576
0.430664 0.00670171 1.19434 -0.851646 0.367831 -0.373363
0.475801 0.00292969 1.19434 -0.00840597 0.41213 -0.911086
0.47168 0.00375509 1.19434 0.0210105 0.396221 -0.917915
0.477539 0.00292969 1.19452 -0.0236266 0.401873 -0.915391
0.483398 0.00292969 1.1944 0.00517557 0.286177 -0.958163
0.489258 0.00292969 1.19549 -0.156389 0.117515 -0.98068
0.495117 0.00292969 1.19446 0.335355 0.036496 -0.941385
0.500977 0.00292969 1.19654 0.110855 0.0300941 -0.993381
0.506836 0.00292969 1.19704 0.131544 0.0861761 -0.987557
0.512695 0.00292969 1.19708 0.119136 0.413765 -0.902555
0.518555 0.00292969 1.19676 -0.18916 0.384335 -0.903607
0.524414 0.00292969 1.19726 0.0298042 -0.00927508 -0.999513
0.530273 0.00292969 1.19837 0.0900349 -0.435833 -0.895513
0.547852 0.00292969 1.19722 0.431665 0.582558 -0.688689
0.553711 0.00292969 1.19707 0.15932 0.797016 -0.582566
0.55957 0.00292969 1.20015 -0.00974177 0.704365 -0.709771
0.00878906 0.00292969 1.1395 0.148205 -0.27971 -0.948577
0.0146484 0.00292969 1.13868 0.39065 -0.210514 -0.896145
0.0380859 0.00292969 1.13687 -0.331169 0.223545 -0.916709
0.0439453 0.00292969 1.13728 0.77177 -0.490555 -0.404632
0.429894 0.00878906 1.18262 -0.664682 0.721215 -0.195057
0.436546 0.00878906 1.18262 0.724642 -0.043409 -0.687757
0.454102 0.00878906 1.1884 -0.296371 0.0229545 -0.954797
-0.356178 0.00878906 1.12402 0.0926509 0.589558 -0.802395
-0.354492 0.00878906 1.12479 -0.0209459 0.7107 -0.703183
-0.348633 0.00878906 1.12483 0.0937296 0.666494 -0.739594
-0.342773 0.00878906 1.1255 -0.0152442 0.723275 -0.690392
-0.336914 0.00878906 1.12537 0.0504461 0.702484 -0.70991
-0.331055 0.00878906 1.1255 -0.616201 0.222351 -0.755551
-0.325013 0.00878906 1.12402 0.163414 0.168127 -0.972126
-0.325195 0.00878906 1.12405 0.17112 0.157126 -0.97264
-0.319336 0.0105791 1.12402 -0.22457 0.203728 -0.952924
-0.310101 0.00878906 1.12402 0.271531 0.209435 -0.939366
-0.307617 0.00878906 1.12463 0.345855 0.222211 -0.911596
-0.301758 0.00878906 1.12657 0.704719 0.706954 0.0598914
-0.295898 0.00878906 1.12811 0.116919 0.992967 0.0186112
-0.278544 0.00878906 1.12402 0.237972 0.753059 -0.613409
-0.243164 0.00878906 1.12834 -0.0407872 -0.0275704 -0.998787
-0.237305 0.00878906 1.12795 -0.0634328 0.0918613 -0.993749
-0.231445 0.00878906 1.12698 0.532884 0.130419 -0.836077
-0.224708 0.00878906 1.12402 -0.985523 -0.0335681 -0.166188
-0.225586 0.00878906 1.12984 -0.99845 0.0190988 -0.0522686
-0.192223 0.00878906 1.12402 0.609785 -0.684092 -0.400225
0.56543 -0.00878906 1.19701 0.318863 0.171944 -0.932074
0.571289 -0.00878906 1.19903 0.124662 0.165514 -0.978297
0.577148 -0.00878906 1.19975 0.0734732 0.176585 -0.981539
0.56543 -0.0146484 1.19651 0.32993 0.016454 -0.943862
0.571289 -0.0146484 1.19898 0.214789 -0.00190711 -0.976659
0.583008 -0.0146484 1.19998 0.455704 0.0935685 -0.8852
0.320858 0.00292969 1.18262 0.294302 0.394965 -0.870281
0.319336 0.00353038 1.18262 0.335889 0.333507 -0.880881
0.325195 0.00292969 1.1837 0.103989 0.499183 -0.860234
0.331055 0.00292969 1.18395 -0.244484 0.401791 -0.882492
0.336914 0.00292969 1.18368 0.262368 0.518164 -0.814045
0.343645 0.00292969 1.18262 -0.235515 0.712203 -0.661286
0.342773 0.00292969 1.18299 -0.265621 0.702644 -0.660104
0.348633 0.00438488 1.18262 -0.255799 0.704504 -0.661998
0.236777 0.00878906 1.17676 -0.375673 0.269017 -0.886848
0.238492 0.00878906 1.17676 -0.366403 0.0503385 -0.929094
0.237305 0.00878906 1.17692 -0.42458 0.198383 -0.883389
0.265446 0.00878906 1.17676 0.294178 0.501915 -0.813352
0.266602 0.00878906 1.17736 0.222965 0.556482 -0.800384
0.272461 0.00878906 1.17906 -0.00779702 0.7065 -0.70767
0.27832 0.00878906 1.17919 -0.29222 0.258161 -0.920848
0.288848 0.00878906 1.17676 0.456942 -0.770248 -0.444885
0.28418 0.00878906 1.17943 -0.709349 -0.547271 -0.444207
0.292583 0.00878906 1.17676 0.826636 0.216336 -0.519492
0.295898 0.00878906 1.17753 0.477251 0.412742 -0.775806
0.301758 0.00878906 1.18076 -0.220076 0.768078 -0.60135
0.307617 0.00878906 1.17846 -0.0792531 0.741332 -0.666443
0.313477 0.00878906 1.17773 0.727488 0.101511 -0.678569
0.56543 -0.00292969 1.19824 0.343723 0.457276 -0.820215
0.571289 -0.00292969 1.20011 -0.00193315 0.500264 -0.865871
0.56543 -0.0205078 1.19892 0.0993799 -0.227938 -0.968591
0.571289 -0.0205078 1.19941 0.21783 -0.0838233 -0.97238
0.577148 -0.0205078 1.19956 -0.135476 0.109881 -0.984669
0.583008 -0.0205078 1.1994 0.342844 0.201354 -0.917559
0.518555 0.00792205 1.2002 -0.291268 0.668696 -0.684111
0.534213 0.00292969 1.2002 0.0681403 -0.532198 -0.843873
0.536133 0.00398934 1.2002 0.127501 -0.299373 -0.945579
0.536133 0.00292969 1.20094 0.101046 -0.499025 -0.860676
0.542411 0.00292969 1.2002 -0.0940659 -0.210605 -0.973035
0.541992 0.0033294 1.2002 -0.109729 -0.171998 -0.978967
0.541992 0.00292969 1.20042 -0.149175 -0.256238 -0.955034
0.553711 0.00462162 1.2002 0.139664 0.5726 -0.807851
0.560117 0.00292969 1.2002 -0.00148933 0.694051 -0.719924
0.55957 0.0029763 1.2002 -0.0113576 0.700992 -0.713078
0.583008 0.00878906 1.19806 0.422035 0.349351 -0.836565
0.00359368 0.00292969 1.1416 -0.241698 -0.514458 -0.822748
0.00292969 0.00331378 1.1416 -0.292137 -0.437175 -0.850608
0.00292969 0.00292969 1.14187 -0.284403 -0.517024 -0.807342
0.0190543 0.00292969 1.1416 0.30777 -0.488107 -0.816719
0.0205078 0.00501466 1.1416 0.161479 -0.196836 -0.967047
0.0205078 0.00292969 1.14257 0.276934 -0.56569 -0.776725
0.0263672 0.00755394 1.1416 -0.0927823 0.519758 -0.84926
0.0263672 0.00292969 1.14621 -0.234307 -0.606163 -0.760044
0.0337678 0.00292969 1.1416 -0.233907 0.787694 -0.569935
0.0322266 0.00571942 1.1416 0.771418 0.378301 -0.511667
0.0322266 0.00292969 1.14329 0.00492454 0.551093 -0.834429
0.0460161 0.00292969 1.1416 0.755393 -0.504063 -0.41869
-0.294871 0.00878906 1.12988 0.15088 0.986613 -0.0618895
-0.279629 0.00878906 1.12988 -0.877512 0.339096 0.339096
-0.246409 0.00878906 1.12988 -0.447437 0.00703649 -0.894288
-0.249023 0.00878906 1.13107 -0.536085 0.197716 -0.820683
-0.191025 0.00878906 1.12988 0.300379 0.246737 -0.921354
-0.19043 0.00878906 1.13162 -0.0409938 0.689918 -0.722726
0.442083 0.00878906 1.18848 0.0683001 0.659997 -0.748157
0.442383 0.00878906 1.18868 0.0575672 0.694227 -0.717451
0.453653 0.00878906 1.18848 -0.294822 0.106905 -0.949553
0.448242 0.00878906 1.18901 0.157337 0.744824 -0.648446
0.454345 0.00878906 1.18848 -0.25445 -0.011691 -0.967015
0.459961 0.00878906 1.18989 0.723922 -0.228396 -0.650978
0.46582 0.00878906 1.19318 0.55894 0.323516 -0.763495
0.56543 0.00292969 1.20084 0.0615228 0.291004 -0.954742
0.571289 0.00292969 1.20377 0.146894 0.0423966 -0.988243
0.577148 0.00292969 1.20316 -0.364063 -0.0531782 -0.929855
0.583008 0.00647426 1.2002 0.0931853 0.183491 -0.978595
0.583008 0.00292969 1.20329 -0.330739 -0.282663 -0.900396
0.588867 0.00292969 1.20194 0.339202 -0.268427 -0.901603
0.594727 0.00292969 1.20399 0.130061 -0.260617 -0.956641
0.600586 0.00292969 1.20477 0.399005 0.0811681 -0.913349
0.606445 0.00292969 1.20469 0.0250993 0.450736 -0.892304
0.612305 0.00292969 1.20466 -0.249216 0.428563 -0.868461
0.618164 0.00292969 1.20404 -0.160902 -0.0333508 -0.986407
0.624023 0.00292969 1.20517 -0.257791 -0.48687 -0.834567
0.629883 0.00292969 1.20421 0.454622 -0.305234 -0.83675
0.635742 0.00292969 1.20556 -0.0210521 -0.182296 -0.983018
0.641602 0.00292969 1.20551 -0.0104165 -0.268243 -0.963295
0.582978 -0.00878906 1.2002 0.40773 0.0657951 -0.910729
0.577148 -0.00531602 1.2002 0.0917518 0.281733 -0.955096
0.583008 -0.00878906 1.2002 0.409153 0.0645465 -0.91018
0.588867 -0.00878906 1.20379 0.313495 0.0425206 -0.948637
0.594727 -0.00878906 1.205 0.365519 0.0203732 -0.930581
0.612305 -0.00878906 1.20396 -0.455775 0.208012 -0.865448
0.618164 -0.00878906 1.20337 0.441331 0.0318195 -0.89678
0.635742 -0.00878906 1.20465 -0.512009 0.0994675 -0.853202
0.641602 -0.00878906 1.20222 -0.0656658 0.0148877 -0.997731
0.647461 -0.00878906 1.20276 0.578232 0.00242873 -0.815869
0.342773 0.00845456 1.18848 -0.142616 0.742734 -0.654223
0.31697 0.00878906 1.18262 0.524519 0.287151 -0.801514
0.319336 0.00878906 1.18454 0.437669 0.531206 -0.725442
0.325195 0.00878906 1.18679 -0.0872174 0.160613 -0.983156
0.331055 0.00878906 1.18786 -0.26981 0.0666172 -0.960606
0.336914 0.00878906 1.18549 0.339622 0.26588 -0.9022
0.348633 0.00878906 1.18757 0.592917 0.592917 -0.544885
0.56543 0.00170517 1.2002 0.235749 0.322214 -0.916843
0.572665 -0.00292969 1.2002 0.0164936 0.485044 -0.874334
0.571289 -0.00280428 1.2002 -0.00355435 0.493684 -0.869634
0.577148 -0.00292969 1.20048 0.0491373 0.374354 -0.925983
0.583008 -0.00292969 1.20155 0.03883 0.0499132 -0.997998
0.588867 -0.00292969 1.20341 0.410895 -0.215252 -0.885908
0.594727 -0.00292969 1.2059 0.195604 -0.331098 -0.9231
0.618164 -0.00292969 1.20359 0.319741 0.00883214 -0.947464
0.624023 -0.00292969 1.20599 0.0543858 -0.190936 -0.980095
0.641602 -0.00292969 1.20251 -0.134285 0.455868 -0.879859
0.647461 -0.00292969 1.20278 0.465504 0.269038 -0.843163
0.576779 -0.0146484 1.2002 0.0182665 -0.0457389 -0.998786
0.578511 -0.0146484 1.2002 0.124024 -0.0312722 -0.991786
0.577148 -0.0135607 1.2002 0.0104753 -0.000466179 -0.999945
0.577148 -0.0146484 1.20028 0.00163658 -0.0435659 -0.999049
0.583633 -0.0146484 1.2002 0.45121 0.113198 -0.88521
0.583008 -0.00882876 1.2002 0.410691 0.0647055 -0.909476
0.588867 -0.0146484 1.20251 0.371691 -0.0491295 -0.927056
0.612305 -0.0146484 1.2022 -0.084856 0.0860303 -0.992672
0.618164 -0.0146484 1.20329 0.289565 0.118922 -0.949742
0.624023 -0.0146484 1.20396 0.155662 0.324195 -0.933095
0.629883 -0.0146484 1.20463 -0.207104 0.335078 -0.919147
0.635742 -0.0146484 1.20354 -0.273454 0.109999 -0.955575
0.641602 -0.0146484 1.20295 0.0144042 -0.193822 -0.980931
0.647461 -0.0146484 1.20362 0.463579 -0.137963 -0.875249
0.55957 0.00826418 1.20605 -0.278166 0.643527 -0.713089
0.577148 -0.0157861 1.2002 -0.00785203 -0.0122992 -0.999894
0.586368 -0.0205078 1.2002 0.42848 0.235989 -0.872189
0.588867 -0.0205078 1.20094 0.457146 0.314263 -0.832019
0.594727 -0.0205078 1.20347 0.178595 0.415871 -0.891715
0.600586 -0.0205078 1.20484 -0.0226679 0.39222 -0.919592
