ply
format ascii 1.0
comment author Lingfeng Ai
element vertex 812
property float x
property float y
property float z
property float nx
property float ny
property float nz
end_header
0.0207007 -0.0732422 0.754883 0.885775 0.137509 -0.443276
0.0205078 -0.0727201 0.754883 0.87459 0.153713 -0.459853
-0.0207438 -0.0849609 0.713867 0.613648 0.0134141 -0.789466
-0.0205078 -0.0849609 0.714051 0.612942 0.00760378 -0.790091
-0.0146484 -0.0849609 0.71912 0.717921 -0.0905862 -0.690205
0.0243182 -0.0849609 0.754883 0.672934 0.651418 -0.350449
0.0263672 -0.0849609 0.759076 0.683477 0.624875 -0.377346
-0.0245854 -0.0673828 0.713867 0.448898 0.419755 -0.788857
-0.0263672 -0.0655636 0.713867 0.444224 0.382828 -0.810005
-0.0205078 -0.0673828 0.716645 0.442186 0.371759 -0.816252
0.026409 -0.0908203 0.754883 0.845274 0.340411 -0.411864
0.0263672 -0.0907013 0.754883 0.843003 0.347072 -0.410959
-0.0301788 -0.0615234 0.713867 0.533384 0.171384 -0.828329
-0.0263672 -0.0615234 0.716536 0.491201 0.228665 -0.840496
-0.0205078 -0.0615234 0.71956 0.456724 0.296192 -0.838853
-0.0135629 -0.0908203 0.719727 0.782617 -0.0574601 -0.619846
0.0236512 -0.0791016 0.760742 0.891455 0.0640417 -0.448561
-0.178711 -0.0791016 0.724451 -0.912851 -0.152777 -0.378631
-0.0134562 -0.0791016 0.719727 0.754644 0.0415528 -0.654817
-0.00878906 -0.0791016 0.724577 0.745589 0.0504033 -0.664497
0.0210379 -0.0673828 0.760742 0.850765 0.112793 -0.5133
0.0205078 -0.0648856 0.760742 0.822524 0.177308 -0.540385
-0.014062 -0.0849609 0.719727 0.727198 -0.0913093 -0.680327
-0.00878906 -0.0849609 0.725304 0.745553 -0.0548434 -0.664186
-0.178711 -0.0732422 0.724545 -0.89059 -0.239919 -0.386378
-0.0134028 -0.0732422 0.719727 0.735878 0.127519 -0.664999
-0.0146484 -0.0685627 0.719727 0.676902 0.249962 -0.692331
-0.00878906 -0.0732422 0.725261 0.704517 0.0359831 -0.708775
0.0229322 -0.0732422 0.760742 0.898236 -0.071626 -0.433637
0.0200522 -0.0615234 0.760742 0.872867 0.160434 -0.46083
0.0205078 -0.0615234 0.761733 0.87573 0.184036 -0.446349
0.0271126 -0.0849609 0.760742 0.724523 0.581413 -0.370168
0.0263672 -0.0841879 0.760742 0.717415 0.563578 -0.409507
-0.178711 -0.0673828 0.725468 -0.756891 -0.0380387 -0.652433
-0.015227 -0.0673828 0.719727 0.650728 0.28674 -0.703088
-0.0146484 -0.0673828 0.720076 0.666177 0.276322 -0.692715
-0.18457 -0.0615234 0.724774 -0.914638 0.0182715 -0.403861
-0.0201569 -0.0615234 0.719727 0.475596 0.292978 -0.829441
-0.0205078 -0.0610265 0.719727 0.458115 0.285478 -0.841804
-0.0146484 -0.0615234 0.722653 0.703194 0.341225 -0.623765
0.0295349 -0.0908203 0.760742 0.916902 0.273488 -0.290681
-0.18457 -0.0908203 0.731146 -0.778045 -0.0108939 -0.628114
-0.0096066 -0.0908203 0.725586 0.707175 -0.125939 -0.695732
-0.00878906 -0.0860454 0.725586 0.738318 -0.0630773 -0.671497
-0.00878906 -0.0908203 0.726702 0.705027 -0.115646 -0.699688
0.0253727 -0.0791016 0.766602 0.830003 0.0791466 -0.552114
0.0263672 -0.0791016 0.769299 0.788496 0.0634759 -0.611756
0.0247147 -0.0673828 0.766602 0.881689 0.150247 -0.44727
0.0263672 -0.0673828 0.769074 0.883538 0.16668 -0.437696
-0.18457 -0.0849609 0.731237 -0.782281 0.204079 -0.588547
-0.178711 -0.0826585 0.725586 -0.722567 0.0312929 -0.690593
-0.00855291 -0.0849609 0.725586 0.733545 -0.0524955 -0.67761
-0.179862 -0.0791016 0.725586 -0.578948 -0.135535 -0.80402
-0.18457 -0.0791016 0.730611 -0.87401 -0.0943793 -0.476654
-0.176148 -0.0791016 0.725586 -0.696756 -0.269659 -0.664691
-0.178711 -0.0791016 0.728312 -0.708767 -0.245488 -0.661351
-0.00796139 -0.0791016 0.725586 0.710789 0.0417021 -0.702168
0.0247122 -0.0732422 0.766602 0.855468 -0.035828 -0.516615
0.0263672 -0.0732422 0.770325 0.841715 0.0722384 -0.535068
0.0238763 -0.0615234 0.766602 0.857383 0.298776 -0.419078
0.0263672 -0.0615234 0.771076 0.853562 0.209658 -0.476944
-0.179911 -0.0732422 0.725586 -0.57155 -0.237251 -0.785521
-0.18457 -0.0732422 0.730634 -0.797532 -0.460238 -0.39003
-0.176539 -0.0732422 0.725586 -0.69463 -0.178037 -0.696988
-0.178711 -0.0732422 0.727993 -0.739076 -0.142985 -0.658271
-0.0085125 -0.0732422 0.725586 0.690092 0.0315255 -0.723035
-0.00878906 -0.0705433 0.725586 0.669169 0.153973 -0.726983
-0.178881 -0.0673828 0.725586 -0.724663 -0.0436637 -0.687719
-0.18457 -0.0627593 0.725586 -0.67476 0.116434 -0.728795
-0.178429 -0.0673828 0.725586 -0.733074 -0.0220528 -0.679792
-0.178711 -0.0663358 0.725586 -0.723654 -0.0445169 -0.688726
-0.178711 -0.0673828 0.725918 -0.733658 -0.0290472 -0.678897
-0.00914133 -0.0673828 0.725586 0.674566 0.266353 -0.688489
-0.00878906 -0.0673828 0.725953 0.672435 0.271172 -0.688692
-0.00292969 -0.0673828 0.731302 0.358181 0.497215 -0.790242
0.0290545 -0.0849609 0.766602 0.763362 0.466389 -0.446945
0.0263672 -0.081427 0.766602 0.779367 0.265469 -0.56755
0.0322266 -0.0849609 0.772016 0.907967 0.202486 -0.366872
0.0316787 -0.0908203 0.766602 0.944158 0.133498 -0.301236
0.0322266 -0.0908203 0.768086 0.949571 0.104957 -0.295463
-0.183431 -0.0908203 0.731445 -0.696335 -0.00199242 -0.717714
-0.18457 -0.0908203 0.732536 -0.755636 0.0305415 -0.65428
-0.0037272 -0.0908203 0.731445 0.044519 -0.063703 -0.996975
0.0027436 -0.0908203 0.731445 0.213776 0.0412649 -0.976011
-0.00292969 -0.0908203 0.732209 -0.105983 -0.039431 -0.993586
-0.180697 -0.0615234 0.725586 -0.689774 -0.0602579 -0.721513
-0.18457 -0.0615234 0.729018 -0.714186 0.0119572 -0.699854
-0.0114686 -0.0615234 0.725586 0.70616 0.437176 -0.55697
-0.00878906 -0.0615234 0.727947 0.689026 0.546882 -0.475566
0.0281174 -0.0673828 0.772461 0.708033 0.247084 -0.661543
0.0380859 -0.0673828 0.778071 0.631626 0.343288 -0.695128
0.0439453 -0.0673828 0.777867 -0.116237 0.782529 -0.611667
-0.18392 -0.0849609 0.731445 -0.751867 0.203007 -0.627284
-0.18457 -0.0849609 0.732285 -0.755334 0.194171 -0.625914
-0.00304282 -0.0849609 0.731445 0.136808 0.136437 -0.981157
-0.00044477 -0.0849609 0.731445 0.136585 0.268044 -0.953676
-0.00292969 -0.0849609 0.731566 0.119728 0.142431 -0.982537
0.028621 -0.0791016 0.772461 0.74688 0.0359787 -0.663985
0.0322266 -0.0791016 0.777095 0.735611 -0.439412 -0.515551
0.0280824 -0.0732422 0.772461 0.717286 0.227152 -0.658713
0.0322266 -0.0732422 0.777333 0.0806137 0.104118 -0.991293
-0.182395 -0.0791016 0.731445 -0.782544 -0.176353 -0.597097
-0.18457 -0.0791016 0.734098 -0.786017 -0.085487 -0.612265
-0.00303411 -0.0791016 0.731445 0.25617 0.00604811 -0.966613
-0.00292969 -0.0791016 0.731564 0.24292 0.00603457 -0.970028
0.0269625 -0.0615234 0.772461 0.834397 0.20017 -0.51353
0.0263672 -0.0596269 0.772461 0.8323 0.221877 -0.507983
0.0380859 -0.0615234 0.77507 -0.387702 0.789221 -0.476253
-0.00237632 -0.0673828 0.731445 0.377988 0.509206 -0.773197
-0.00292969 -0.0670637 0.731445 0.361538 0.525924 -0.769866
-0.182793 -0.0732422 0.731445 -0.741966 -0.309678 -0.594632
-0.18457 -0.071435 0.731445 -0.84153 -0.321276 -0.434292
-0.18457 -0.0732422 0.734672 -0.835714 -0.213618 -0.505914
-0.00301075 -0.0732422 0.731445 0.268004 0.0131159 -0.963329
-0.00292969 -0.0710902 0.731445 0.282247 0.22583 -0.932383
-0.00292969 -0.0732422 0.731531 0.259141 0.015257 -0.965719
0.0334166 -0.0908203 0.772461 0.96043 0.0683424 -0.270005
0.0323908 -0.0849609 0.772461 0.914844 0.189055 -0.356817
0.0322266 -0.0845338 0.772461 0.911738 0.170576 -0.373682
-0.00542986 -0.0615234 0.731445 0.470657 0.751887 -0.461679
-0.00878906 -0.0568931 0.731445 0.868426 0.186815 -0.459277
-0.00292969 -0.0615234 0.734106 0.309734 0.816655 -0.48697
0.0311781 -0.0673828 0.77832 -0.262014 0.048028 -0.963868
0.0373849 -0.0673828 0.77832 0.580849 0.217916 -0.7843
0.0322266 -0.0673828 0.78012 -0.510427 -0.0124327 -0.859831
0.0439453 -0.0667993 0.77832 -0.195102 0.725842 -0.659612
0.0329067 -0.0791016 0.77832 0.714359 -0.543975 -0.440207
0.0345351 -0.0732422 0.77832 0.153853 -0.220808 -0.963106
0.0322266 -0.0712588 0.77832 -0.168558 0.0439353 -0.984712
0.0380859 -0.0682455 0.77832 0.475571 0.261531 -0.839901
0.0380859 -0.0732422 0.779948 0.162654 -0.558163 -0.813632
0.0439453 -0.068158 0.77832 0.211424 0.689496 -0.692745
0.0439453 -0.0732422 0.783282 0.817951 -0.395223 -0.418038
0.0298859 -0.0615234 0.77832 0.535012 0.458201 -0.709798
0.0349118 -0.0615234 0.77832 0.016064 0.929107 -0.369461
0.0322266 -0.0615234 0.781661 0.130071 0.804212 -0.579935
0.0404092 -0.0615234 0.77832 -0.42029 -0.395289 -0.816763
0.0380859 -0.0603813 0.77832 -0.643256 0.493874 -0.585073
0.0352043 -0.0908203 0.77832 0.969319 0.0180673 -0.24514
0.0345013 -0.0849609 0.77832 0.962864 0.121754 -0.240976
0.00249612 -0.0615234 0.737305 0.133193 0.809083 -0.572402
-0.00292969 -0.0595306 0.737305 0.393557 0.691833 -0.605376
0.0439453 -0.0622777 0.78418 0.474498 0.51759 -0.712006
0.0351663 -0.0791016 0.78418 0.494377 -0.839108 -0.226913
0.0380859 -0.0753 0.78418 0.11079 -0.82789 -0.54984
0.0439453 -0.0735897 0.78418 0.834201 -0.390189 -0.389693
0.0498047 -0.0791016 0.786768 0.690539 0.690539 -0.215199
0.0365186 -0.0908203 0.78418 0.98903 0.0210318 -0.146212
0.0380859 -0.0908203 0.789643 0.981555 0.0186119 -0.190273
0.0322266 -0.0559585 0.78418 0.616426 -0.0355159 -0.786611
0.043192 -0.0615234 0.78418 0.444702 0.496708 -0.745333
0.0380859 -0.0586045 0.78418 -0.67056 0.521055 -0.528063
0.0439453 -0.0615234 0.785157 0.577374 0.577374 -0.577302
0.0360404 -0.0849609 0.78418 0.967345 0.018917 -0.252755
-0.00292969 -0.0558593 0.743164 0.591282 0.198378 -0.781685
0.0367537 -0.0791016 0.790039 0.0595453 -0.814928 -0.576496
0.0380859 -0.076878 0.790039 0.153262 -0.627808 -0.76313
0.0469224 -0.0791016 0.790039 0.841325 0.382213 0.382213
0.0439453 -0.0771945 0.790039 0.903694 -0.224243 -0.364763
0.0439453 -0.0791016 0.79129 0.896984 -0.11512 -0.426811
0.0381637 -0.0908203 0.790039 0.979107 0.0122443 -0.202979
0.0380859 -0.0897492 0.790039 0.972992 -0.0798266 -0.216598
0.0380859 -0.0560242 0.790039 0.543008 0.555515 -0.629718
0.0374628 -0.0849609 0.790039 0.583188 -0.631634 -0.510814
0.0380859 -0.0849609 0.792723 0.191096 -0.901534 -0.388226
0.0498047 -0.0799434 0.790039 0.643617 -0.414141 0.643617
0.0379243 -0.0791016 0.795898 -0.23133 -0.821225 -0.521609
0.0382901 -0.0791016 0.795898 -0.219397 -0.795419 -0.564955
0.0380859 -0.0789684 0.795898 -0.23481 -0.804488 -0.545586
0.0380859 -0.0791016 0.796237 -0.264206 -0.80636 -0.529131
0.0392008 -0.0908203 0.795898 0.999509 0.0146145 -0.0277097
0.0386267 -0.0849609 0.795898 0.2413 -0.959348 -0.146379
0.0380859 -0.0803642 0.795898 -0.469671 -0.760164 -0.448955
0.0439453 -0.0816566 0.795898 0.815451 -0.557119 -0.157031
0.0398115 -0.0908203 0.801758 0.973027 0.158646 -0.167481
0.0322266 -0.0732422 0.825797 0.323848 -0.904967 0.275966
0.0393958 -0.0849609 0.801758 0.200151 -0.972941 -0.115435
0.0439453 -0.0819018 0.801758 0.862203 -0.492448 -0.118747
0.0402611 -0.0908203 0.807617 0.74614 0.136855 -0.651572
0.0299075 -0.0732422 0.831055 0.172841 -0.983752 -0.0485601
0.0322266 -0.0705085 0.831055 0.925707 -0.378181 0.00680011
0.0399027 -0.0849609 0.807617 0.0561639 -0.984474 -0.166303
0.0439453 -0.0824997 0.807617 0.899918 -0.42208 -0.109523
0.0498047 -0.0849609 0.809418 0.669609 0.669609 -0.321322
0.0322266 -0.0791016 0.822792 0.292352 -0.711056 0.639476
0.0380859 -0.0791016 0.819833 -0.731761 -0.127174 0.669591
0.0229974 -0.0908203 0.813477 0.316661 -0.944166 -0.0909753
0.0314797 -0.0908203 0.813477 -0.428007 -0.138451 0.893108
0.0263672 -0.0873166 0.813477 0.802122 -0.581835 0.134418
0.0322266 -0.0908203 0.814666 -0.653398 -0.146885 0.742628
0.0417593 -0.0908203 0.813477 -0.115268 -0.663399 -0.739334
0.0498047 -0.088407 0.813477 0.743008 -0.105773 0.660872
0.0498047 -0.0908203 0.816721 0.616378 0.616378 -0.490058
0.0322266 -0.0708421 0.836914 0.627795 -0.345126 0.697683
0.0309435 -0.0791016 0.825195 0.432596 -0.509323 0.743943
0.0322266 -0.0745959 0.825195 -0.0049808 -0.871831 0.489781
0.0404272 -0.0791016 0.825195 -0.360203 0.617261 0.699459
0.0322266 -0.0849609 0.815937 0.105846 -0.66835 0.736278
0.0406303 -0.0849609 0.813477 -0.0490257 -0.959872 -0.276121
0.0380859 -0.0849609 0.818662 -0.849496 -0.450201 0.275091
0.0458604 -0.0849609 0.813477 0.900258 0.0476219 0.432745
0.0439453 -0.0837816 0.813477 0.881353 -0.463657 -0.090772
0.0439453 -0.0849609 0.81672 0.809098 -0.586249 -0.0409
0.0234913 -0.0908203 0.819336 0.322603 -0.944335 -0.0644877
0.0263672 -0.0878416 0.819336 0.917347 -0.375319 0.132703
0.0376285 -0.0908203 0.819336 -0.602916 -0.0323616 0.797148
0.039669 -0.0908203 0.819336 -0.693872 -0.597375 0.402099
0.0380859 -0.0865003 0.819336 -0.821787 -0.424014 0.380628
0.0380859 -0.0908203 0.820527 -0.786721 -0.0562247 0.614743
0.0462549 -0.0908203 0.819336 -0.118905 0.842153 -0.525966
0.0439453 -0.0879849 0.819336 0.596476 -0.788934 0.147645
0.0309029 -0.0849609 0.819336 0.399777 -0.507386 0.763373
0.0322266 -0.082616 0.819336 0.372494 -0.447807 0.812845
0.0387309 -0.0849609 0.819336 -0.782551 -0.573312 0.242748
0.0380859 -0.0836718 0.819336 -0.915717 -0.307025 0.259225
0.0263672 -0.0882535 0.825195 0.975001 -0.206987 -0.0808082
0.0447829 -0.0908203 0.825195 -0.573665 0.34915 0.740948
0.0439453 -0.0871761 0.825195 0.312559 -0.671945 0.671414
0.0296596 -0.0849609 0.825195 0.914769 -0.396075 0.0795058
0.0430529 -0.0849609 0.825195 0.20289 -0.638627 0.742288
0.0439453 -0.0849609 0.828141 -0.289453 -0.289453 0.912378
0.0322266 -0.0791016 0.851676 0.562001 0.562001 -0.606886
0.0263672 -0.0887175 0.831055 0.898391 -0.187822 0.39701
0.0301249 -0.0849609 0.831055 0.893576 -0.119148 -0.432812
0.0439453 -0.0849609 0.834235 0.704292 0.704292 0.0891417
0.0439453 -0.087276 0.836914 -0.0776022 0.740858 0.667163
0.0439453 -0.0908203 0.840125 -0.601628 0.748128 -0.279907
0.043208 -0.0849609 0.836914 -0.680701 -0.0846385 0.727656
0.0439453 -0.0849609 0.839503 -0.694023 -0.694023 -0.191479
0.0419537 -0.0908203 0.842773 -0.682562 0.54748 -0.484123
0.0439453 -0.0878906 0.842773 0.192213 0.861283 -0.470367
0.0439453 -0.0849609 0.844506 0.667247 0.667247 -0.331003
0.0276027 -0.0849609 0.848633 0.45595 -0.206093 -0.865815
0.0322266 -0.0849609 0.854339 0.645174 -0.138543 -0.75137
0.0408393 -0.0849609 0.848633 -0.224566 0.685522 0.692553
0.0263672 -0.0869645 0.848633 0.762 0.00569973 -0.647552
0.0263672 -0.0908203 0.851539 0.380292 0.123266 -0.916615
0.0322266 -0.0908203 0.851635 0.0262037 0.563439 -0.825742
0.0384773 -0.0908203 0.848633 -0.804437 0.587829 0.0856627
0.0380859 -0.0908203 0.849676 -0.72199 0.687803 -0.0752231
0.0328498 -0.0849609 0.854492 0.659621 -0.0575207 -0.749394
0.0380859 -0.0849609 0.8559 0.577998 0.577998 -0.576053
0.0380859 -0.0864559 0.854492 0.298914 0.761308 -0.575379
-0.19043 -0.0498047 0.696088 -0.636338 0.0265845 -0.770952
-0.19043 -0.0439453 0.695192 -0.573212 0.205909 -0.793113
-0.196289 -0.0322266 0.701945 -0.607316 0.177247 -0.774436
-0.189756 -0.0322266 0.696289 -0.555437 0.137264 -0.820152
-0.19043 -0.0322266 0.696776 -0.57654 0.136667 -0.805558
-0.196289 -0.0556641 0.700903 -0.601508 -0.11132 -0.791072
-0.189648 -0.0556641 0.696289 -0.623459 -0.203247 -0.754976
-0.19043 -0.0514632 0.696289 -0.662968 -0.0363877 -0.747763
-0.19043 -0.0556641 0.696907 -0.645388 -0.187618 -0.740455
-0.187991 -0.0263672 0.696289 -0.520704 0.128219 -0.844054
-0.19043 -0.0263672 0.698121 -0.591918 0.129558 -0.795518
-0.196289 -0.0380859 0.70082 -0.580276 0.0830789 -0.810171
-0.189808 -0.0380859 0.696289 -0.548717 0.0338633 -0.835322
-0.19043 -0.0380859 0.696736 -0.567718 0.0332531 -0.822551
-0.190671 -0.0498047 0.696289 -0.635855 0.0193828 -0.771565
-0.196289 -0.0498047 0.701297 -0.615974 -0.0720124 -0.784468
-0.191715 -0.0439453 0.696289 -0.570214 0.200353 -0.79669
-0.196289 -0.0439453 0.700223 -0.575568 0.125025 -0.80814
-0.19043 -0.0397458 0.696289 -0.572254 0.0797697 -0.816187
-0.196468 -0.0322266 0.702148 -0.608798 0.177801 -0.773144
-0.196289 -0.0314103 0.702148 -0.610445 0.161542 -0.77541
-0.194867 -0.0263672 0.702148 -0.584587 0.07139 -0.808184
-0.196289 -0.0263672 0.703319 -0.591315 0.0425218 -0.805319
-0.197578 -0.0556641 0.702148 -0.613306 -0.0924995 -0.78441
-0.202148 -0.0556641 0.706262 -0.636334 -0.0531044 -0.769583
-0.197491 -0.0498047 0.702148 -0.612102 -0.0886104 -0.785798
-0.202148 -0.0498047 0.706283 -0.682233 -0.0623686 -0.72847
-0.197506 -0.0380859 0.702148 -0.612763 0.0933684 -0.784732
-0.202148 -0.0380859 0.707563 -0.672416 0.112775 -0.731531
-0.198069 -0.0439453 0.702148 -0.612197 0.102292 -0.784061
-0.202148 -0.0439453 0.706361 -0.694965 0.116743 -0.709503
-0.201475 -0.0322266 0.708008 -0.672356 0.140012 -0.726866
-0.202148 -0.0322266 0.708637 -0.662139 0.138474 -0.736476
-0.200635 -0.0263672 0.708008 -0.66627 0.0200273 -0.745442
-0.202148 -0.0263672 0.709416 -0.646688 0.00751715 -0.762717
-0.203787 -0.0556641 0.708008 -0.625679 -0.0308961 -0.779469
-0.208008 -0.0556641 0.712654 -0.685946 -0.0490273 -0.725999
-0.125977 -0.0439453 0.683951 -0.236605 0.15798 -0.958676
-0.120117 -0.0439453 0.68243 -0.153771 0.090839 -0.983922
-0.114258 -0.0439453 0.681713 0.0144296 0.0245283 -0.999595
-0.108398 -0.0439453 0.681816 0.0889265 0.0564551 -0.994437
-0.102539 -0.0439453 0.68192 0.0926604 0.140446 -0.985743
-0.0966797 -0.0439453 0.682316 0.133473 0.175335 -0.975419
-0.0908203 -0.0439453 0.683141 0.226971 0.216971 -0.949425
-0.0849609 -0.0439453 0.684119 0.241286 0.21389 -0.94659
-0.120117 -0.0380859 0.68323 -0.194179 0.0994656 -0.97591
-0.114258 -0.0380859 0.681901 -0.0309624 0.0881384 -0.995627
-0.108398 -0.0380859 0.681874 0.137414 0.0600351 -0.988693
-0.102539 -0.0380859 0.68262 0.170634 0.105922 -0.979625
-0.0966797 -0.0380859 0.683337 0.115843 0.123849 -0.985516
-0.0908203 -0.0380859 0.684115 0.251201 0.0752266 -0.965007
-0.172852 -0.0498047 0.683876 0.976903 0.0375874 -0.210353
-0.125977 -0.0498047 0.683818 -0.234783 0.0378793 -0.971309
-0.120117 -0.0498047 0.6822 -0.0886834 0.0437787 -0.995097
-0.114258 -0.0498047 0.681385 -0.00537327 0.0679589 -0.997674
-0.108398 -0.0498047 0.681258 0.00880649 0.130585 -0.991398
-0.102539 -0.0498047 0.681107 0.111379 0.10623 -0.988084
-0.0966797 -0.0498047 0.681957 0.10185 0.0866191 -0.991022
-0.0908203 -0.0498047 0.682386 0.171982 0.134524 -0.975872
-0.0849609 -0.0498047 0.683216 0.310416 0.119007 -0.943122
-0.203577 -0.0498047 0.708008 -0.649725 -0.048996 -0.758589
-0.208008 -0.0498047 0.71238 -0.729288 0.034076 -0.683358
-0.203431 -0.0439453 0.708008 -0.635844 0.108139 -0.764204
-0.208008 -0.0439453 0.713624 -0.738145 0.0142063 -0.674493
-0.120117 -0.0322266 0.683829 -0.122105 0.0313558 -0.992022
-0.114258 -0.0322266 0.682603 -0.0519588 0.105621 -0.993048
-0.108398 -0.0322266 0.682216 0.154006 0.122352 -0.980465
-0.102539 -0.0322266 0.682867 0.192214 0.117111 -0.97434
-0.0966797 -0.0322266 0.684174 0.13858 0.14302 -0.97997
-0.172852 -0.0556641 0.684138 0.972378 0.000309353 -0.23341
-0.125977 -0.0556641 0.683694 -0.292107 0.0646424 -0.954198
-0.120117 -0.0556641 0.68155 -0.10221 0.132566 -0.98589
-0.114258 -0.0556641 0.680533 -0.00107136 0.123131 -0.99239
-0.108398 -0.0556641 0.680679 0.0261615 0.0431531 -0.998726
-0.102539 -0.0556641 0.681031 0.115626 0.0415232 -0.992425
-0.0966797 -0.0556641 0.681534 0.0471387 0.113639 -0.992403
-0.0908203 -0.0556641 0.681613 0.151957 0.133715 -0.979301
-0.0849609 -0.0556641 0.682435 0.317685 0.152413 -0.935867
-0.0791016 -0.0556641 0.684251 0.312579 0.112995 -0.943147
-0.202635 -0.0380859 0.708008 -0.646082 0.116524 -0.754321
-0.208008 -0.0380859 0.712374 -0.73152 0.184592 -0.656358
-0.202148 -0.0361234 0.708008 -0.667411 0.119038 -0.735114
-0.120117 -0.0263672 0.683678 -0.0687136 0.0917959 -0.993404
-0.114258 -0.0263672 0.683202 0.0322782 0.15714 -0.987049
-0.108398 -0.0263672 0.682827 0.188702 0.255734 -0.948152
-0.102539 -0.0263672 0.683694 0.175455 0.288559 -0.941249
-0.213867 -0.0322266 0.719288 -0.658388 0.054689 -0.75069
-0.207352 -0.0322266 0.713867 -0.719158 0.103022 -0.687167
-0.208008 -0.0322266 0.714608 -0.729888 0.0917445 -0.677382
-0.208698 -0.0556641 0.713867 -0.669229 -0.0586849 -0.740735
-0.213867 -0.0263672 0.719479 -0.655035 0.0107916 -0.755521
-0.207091 -0.0263672 0.713867 -0.708984 0.0136482 -0.705092
-0.208008 -0.0263672 0.714788 -0.717194 0.0202087 -0.69658
-0.178711 -0.0439453 0.687701 0.0267934 0.0929092 -0.995314
-0.172852 -0.0439453 0.685095 0.975413 0.0248374 -0.218979
-0.143555 -0.0439453 0.69026 -0.326383 0.10453 -0.93944
-0.137695 -0.0439453 0.688234 -0.307422 0.0909297 -0.947219
-0.127594 -0.0439453 0.68457 -0.253485 0.16635 -0.952929
-0.131836 -0.0439453 0.686217 -0.323875 0.129559 -0.937187
-0.125977 -0.0404238 0.68457 -0.251535 0.108676 -0.961728
-0.0835178 -0.0439453 0.68457 0.241963 0.189959 -0.951509
-0.0849609 -0.0423015 0.68457 0.215572 0.180036 -0.959748
-0.0791016 -0.0439453 0.685928 0.278941 0.191955 -0.940928
-0.0732422 -0.0439453 0.687392 0.52017 0.267276 -0.811164
-0.178711 -0.0380859 0.688925 0.0690938 0.147582 -0.986633
-0.172852 -0.0380859 0.687582 0.987856 0.00604423 -0.155253
-0.137695 -0.0380859 0.68871 -0.316829 -0.00361043 -0.948476
-0.131836 -0.0380859 0.686752 -0.246482 0.0332218 -0.968578
-0.124541 -0.0380859 0.68457 -0.235739 0.0784611 -0.968644
-0.125977 -0.0380859 0.684989 -0.245319 0.0749194 -0.966543
-0.0891466 -0.0380859 0.68457 0.25649 0.0626883 -0.964512
-0.0908203 -0.0338343 0.68457 0.220031 0.142791 -0.964985
-0.0849609 -0.0380859 0.685731 0.233969 0.103196 -0.966752
-0.0791016 -0.0380859 0.687013 0.329206 0.161877 -0.930279
-0.0732422 -0.0380859 0.688823 0.653112 0.256077 -0.712649
-0.208812 -0.0498047 0.713867 -0.700006 0.0605234 -0.711568
-0.208164 -0.0439453 0.713867 -0.734831 0.0148042 -0.678088
-0.213867 -0.0439453 0.719584 -0.72218 -0.0204709 -0.691402
-0.178711 -0.0322266 0.689986 -0.180051 -0.129497 -0.975096
-0.172852 -0.0322266 0.688678 0.976418 -0.073528 -0.202982
-0.137695 -0.0322266 0.688751 -0.340382 0.0189843 -0.940096
-0.131836 -0.0322266 0.686776 -0.242442 -0.0366044 -0.969475
-0.12304 -0.0322266 0.68457 -0.169798 -0.0305842 -0.985004
-0.125977 -0.0322266 0.685323 -0.219066 -0.0567116 -0.97406
-0.0925986 -0.0322266 0.68457 0.184459 0.180054 -0.966207
-0.0966797 -0.0285312 0.68457 0.163799 0.198746 -0.966266
-0.0908203 -0.0322266 0.684739 0.206927 0.166824 -0.964029
-0.0849609 -0.0322266 0.68602 0.263 0.116294 -0.957761
-0.0791016 -0.0322266 0.687852 0.349839 0.110948 -0.930217
-0.0732422 -0.0322266 0.689894 0.731502 -0.00430098 -0.681825
-0.174471 -0.0498047 0.68457 0.961665 0.0628078 -0.266938
-0.178711 -0.0498047 0.686419 0.156093 0.241552 -0.957751
-0.172476 -0.0498047 0.68457 0.97262 0.0441989 -0.228161
-0.172852 -0.0452302 0.68457 0.974467 0.0343269 -0.221893
-0.143555 -0.0498047 0.690379 -0.346677 0.00550466 -0.937968
-0.137695 -0.0498047 0.688147 -0.327209 0.0564809 -0.943263
-0.128228 -0.0498047 0.68457 -0.266209 0.0249906 -0.963591
-0.131836 -0.0498047 0.685738 -0.335283 0.0520861 -0.940676
-0.0812649 -0.0498047 0.68457 0.270657 0.0956321 -0.957914
-0.0791016 -0.0498047 0.68535 0.261499 0.0895561 -0.96104
-0.0732422 -0.0498047 0.686875 0.457553 0.0973704 -0.883835
-0.0673828 -0.0498047 0.689793 0.442671 0.174432 -0.879554
-0.173583 -0.0556641 0.68457 0.968735 0.00105381 -0.248095
-0.178711 -0.0556641 0.68751 0.40148 -0.0973935 -0.910675
-0.172606 -0.0556641 0.68457 0.967802 0.00170563 -0.251708
-0.143555 -0.0556641 0.689885 -0.368131 0.0315552 -0.929238
-0.137695 -0.0556641 0.688048 -0.371795 0.0390088 -0.927495
-0.129042 -0.0556641 0.68457 -0.280298 0.0196959 -0.959711
-0.131836 -0.0556641 0.685338 -0.283753 0.0439809 -0.957888
-0.0782766 -0.0556641 0.68457 0.329622 0.0979949 -0.939013
-0.0791016 -0.0540088 0.68457 0.286915 0.107189 -0.95194
-0.0732422 -0.0556641 0.68652 0.397162 0.108937 -0.91126
-0.0673828 -0.0556641 0.688823 0.403684 0.156264 -0.901455
-0.209552 -0.0380859 0.713867 -0.694774 0.205916 -0.689121
-0.213867 -0.0380859 0.718574 -0.683221 0.160368 -0.712384
-0.208008 -0.0343077 0.713867 -0.740946 0.11562 -0.661537
-0.172852 -0.0263672 0.68788 0.97237 -0.00714046 -0.233336
-0.137695 -0.0263672 0.689017 -0.354138 0.00767235 -0.935162
-0.131836 -0.0263672 0.686735 -0.24172 0.041547 -0.969456
-0.124545 -0.0263672 0.68457 -0.161477 0.0970637 -0.982092
-0.125977 -0.0263672 0.684853 -0.190843 0.0949311 -0.977019
-0.097911 -0.0263672 0.68457 0.12139 0.258014 -0.958485
-0.102539 -0.0234914 0.68457 0.182904 0.21943 -0.95833
-0.0966797 -0.0263672 0.684794 0.110308 0.230401 -0.966824
-0.0908203 -0.0263672 0.68586 0.203668 0.17863 -0.962606
-0.0849609 -0.0263672 0.686949 0.244746 0.20514 -0.947638
-0.0791016 -0.0263672 0.68843 0.287853 0.127645 -0.94913
-0.213649 -0.0556641 0.719727 -0.711866 0.029779 -0.701684
-0.213867 -0.0556641 0.719925 -0.705018 0.0360124 -0.708274
-0.21576 -0.0263672 0.719727 -0.568741 0.0290809 -0.822002
-0.219727 -0.0263672 0.720625 -0.516102 0.0527492 -0.854901
-0.213867 -0.0206149 0.719727 -0.645003 0.0706359 -0.760908
-0.213137 -0.0498047 0.719727 -0.757075 0.0327028 -0.652509
-0.213867 -0.0448117 0.719727 -0.73172 -0.0133113 -0.681475
-0.213867 -0.0498047 0.720527 -0.741396 0.0332535 -0.670243
-0.181697 -0.0380859 0.69043 -0.0597918 0.214031 -0.974995
-0.18457 -0.0380859 0.691938 -0.33247 0.106972 -0.937027
-0.171524 -0.0380859 0.69043 0.967989 -0.153953 -0.198229
-0.172852 -0.0380859 0.696161 0.879006 -0.324606 -0.349256
-0.149414 -0.0380859 0.693843 -0.401317 0.0505617 -0.914543
-0.142282 -0.0380859 0.69043 -0.354951 0.0214483 -0.934639
-0.143555 -0.0380859 0.6909 -0.362406 0.0349977 -0.931363
-0.0710144 -0.0380859 0.69043 0.591844 0.391611 -0.704529
-0.0673828 -0.0380859 0.692951 0.471284 0.483279 -0.737789
-0.213998 -0.0439453 0.719727 -0.723895 -0.0235457 -0.689508
-0.184338 -0.0439453 0.69043 -0.378172 0.246021 -0.892446
-0.18457 -0.0439453 0.690533 -0.410706 0.242654 -0.878886
-0.171692 -0.0439453 0.69043 0.98268 0.0963668 -0.158284
-0.172852 -0.0439453 0.694809 0.864604 0.176159 -0.470562
-0.155273 -0.0439453 0.696179 -0.467349 0.115665 -0.876474
-0.143888 -0.0439453 0.69043 -0.333332 0.105606 -0.936876
-0.149414 -0.0439453 0.693205 -0.422965 0.0971066 -0.900928
-0.143555 -0.0423561 0.69043 -0.331746 0.0870396 -0.939345
-0.0677674 -0.0439453 0.69043 0.470473 0.33567 -0.816076
-0.0673828 -0.0439453 0.690645 0.470497 0.339365 -0.814533
-0.0615234 -0.0439453 0.693858 0.556645 0.346542 -0.75502
-0.179973 -0.0322266 0.69043 -0.184692 -0.0445531 -0.981786
-0.18457 -0.0322266 0.691978 -0.334734 0.110026 -0.935867
-0.178711 -0.0280274 0.69043 -0.334732 -0.066314 -0.939977
-0.171879 -0.0322266 0.69043 0.979293 -0.0252186 -0.200873
-0.149414 -0.0322266 0.694049 -0.397392 0.00153468 -0.917648
-0.141447 -0.0322266 0.69043 -0.364741 0.0328487 -0.93053
-0.143555 -0.0322266 0.691358 -0.372468 0.0202495 -0.927824
-0.0727105 -0.0322266 0.69043 0.748282 -0.0163056 -0.66318
-0.0732422 -0.0280983 0.69043 0.735273 0.183412 -0.652482
-0.181896 -0.0556641 0.69043 -0.0198705 -0.121488 -0.992394
-0.18457 -0.0556641 0.69266 -0.547066 -0.200594 -0.8127
-0.1714 -0.0556641 0.69043 0.633358 0.0628883 -0.771299
-0.161133 -0.0556641 0.696067 -0.363359 0.0736172 -0.928736
-0.155273 -0.0556641 0.693684 -0.289857 0.0841077 -0.953367
-0.145089 -0.0556641 0.69043 -0.371885 0.0322258 -0.927719
-0.149414 -0.0556641 0.692173 -0.342495 0.00564922 -0.939503
-0.0636712 -0.0556641 0.69043 0.446589 0.169227 -0.87859
-0.0615234 -0.0556641 0.691373 0.471457 0.188168 -0.861581
-0.0556641 -0.0556641 0.694367 0.536218 0.278506 -0.796809
-0.184121 -0.0498047 0.69043 -0.374903 0.137814 -0.916763
-0.18457 -0.0498047 0.690698 -0.449637 0.125895 -0.884295
-0.171511 -0.0498047 0.69043 0.794805 0.344976 -0.499275
-0.161133 -0.0498047 0.696289 -0.363027 0.287325 -0.886372
-0.155273 -0.0498047 0.694637 -0.404148 0.142155 -0.90358
-0.143704 -0.0498047 0.69043 -0.347901 0.00386686 -0.937523
-0.149414 -0.0498047 0.692404 -0.389384 0.0365032 -0.920352
-0.0659888 -0.0498047 0.69043 0.464096 0.188818 -0.865426
-0.0673828 -0.0454024 0.69043 0.466587 0.300562 -0.831841
-0.0615234 -0.0498047 0.692471 0.539378 0.258417 -0.801431
-0.0556641 -0.0498047 0.695889 0.613759 0.367837 -0.698567
-0.214642 -0.0380859 0.719727 -0.658468 0.158942 -0.735634
0.00292969 -0.0380859 0.748616 0.0608264 0.393923 -0.917128
-0.18457 -0.0263672 0.693409 -0.419936 0.10729 -0.901189
-0.1784 -0.0263672 0.69043 -0.241663 -0.0556623 -0.968763
-0.178711 -0.0263672 0.690597 -0.361043 -0.0491414 -0.931254
-0.171191 -0.0263672 0.69043 0.992036 -0.0388199 -0.119823
-0.149414 -0.0263672 0.693788 -0.369669 0.00751023 -0.929133
-0.141143 -0.0263672 0.69043 -0.360445 -0.0021752 -0.932778
-0.143555 -0.0263672 0.691398 -0.377546 0.00946028 -0.925942
-0.0738192 -0.0263672 0.69043 0.74353 0.196869 -0.639066
-0.0732422 -0.0263672 0.690655 0.771916 0.225347 -0.594444
-0.219071 -0.0556641 0.725586 -0.880534 0.103836 -0.462469
-0.219727 -0.0556641 0.72685 -0.878578 0.0997819 -0.467059
-0.185438 -0.0556641 0.725586 -0.37332 -0.0426641 -0.926721
0.00292969 -0.0556641 0.747111 0.119978 0.413968 -0.90235
0.00878906 -0.0556641 0.747202 0.698786 0.366019 -0.614596
-0.217319 -0.0439453 0.725586 -0.791393 -0.1509 -0.59239
-0.219727 -0.0439453 0.729843 -0.723264 -0.288097 -0.627606
-0.184836 -0.0439453 0.725586 0.516985 -0.727558 0.450983
-0.218411 -0.0498047 0.725586 -0.872182 0.0972877 -0.47941
-0.219727 -0.0498047 0.728035 -0.841758 0.0771936 -0.534308
-0.18509 -0.0498047 0.725586 -0.371907 0.300854 -0.878164
-0.172902 -0.0380859 0.696289 0.876188 -0.327653 -0.353466
-0.172852 -0.0379975 0.696289 0.87831 -0.319746 -0.355436
-0.172852 -0.0380859 0.696465 0.871446 -0.326964 -0.365619
-0.161133 -0.0380859 0.700169 -0.47782 0.101317 -0.872596
-0.153818 -0.0380859 0.696289 -0.472224 0.0478709 -0.880178
-0.155273 -0.0380859 0.697125 -0.490823 0.0457906 -0.870055
-0.0620859 -0.0380859 0.696289 0.506312 0.424625 -0.750561
-0.0673828 -0.0329559 0.696289 0.563492 0.214132 -0.797887
-0.0615234 -0.0380859 0.696655 0.515484 0.416209 -0.74903
-0.0556641 -0.0380859 0.701036 0.457379 0.216494 -0.862516
-0.170471 -0.0322266 0.696289 0.729575 0.149405 -0.667382
-0.161133 -0.0322266 0.701193 -0.575199 0.0177872 -0.81782
-0.152953 -0.0322266 0.696289 -0.454367 0.00153641 -0.890813
-0.155273 -0.0322266 0.69765 -0.460082 -0.0170902 -0.887712
-0.0678027 -0.0322266 0.696289 0.619856 0.142559 -0.771657
-0.0673828 -0.0322266 0.69682 0.589133 0.171311 -0.789668
-0.0615234 -0.0322266 0.700096 0.477743 0.307805 -0.822811
-0.173274 -0.0439453 0.696289 0.791258 0.173471 -0.58636
-0.172852 -0.0439453 0.699063 0.431715 0.348733 -0.83187
-0.166992 -0.0439453 0.70074 -0.463527 0.318083 -0.827022
-0.155547 -0.0439453 0.696289 -0.465983 0.118706 -0.876795
-0.161133 -0.0439453 0.698866 -0.456237 0.121023 -0.88159
-0.155273 -0.0432878 0.696289 -0.473406 0.108545 -0.874131
-0.0582429 -0.0439453 0.696289 0.616954 0.325626 -0.716474
-0.0615234 -0.0388514 0.696289 0.523736 0.413182 -0.744971
-0.0556641 -0.0439453 0.698255 0.640397 0.266041 -0.720496
-0.168097 -0.0556641 0.696289 -0.0835923 0.0480777 -0.99534
-0.163895 -0.0556641 0.696289 -0.245502 0.00565965 -0.969379
-0.166992 -0.0556641 0.696522 -0.0705012 0.0320619 -0.996996
-0.0523072 -0.0556641 0.696289 0.575267 0.323113 -0.751442
-0.0498047 -0.0556641 0.697779 0.625182 0.265286 -0.73401
0.00292969 -0.0322266 0.754032 -0.274727 0.165229 -0.947219
0.00878906 -0.0322266 0.751769 0.51407 0.114006 -0.850138
0.00292969 -0.0398066 0.749023 0.300871 0.247551 -0.920975
0.00292969 -0.0439453 0.749914 0.412316 -0.105033 -0.904966
0.00878906 -0.0439453 0.752339 0.670294 -0.0538005 -0.740143
-0.224391 -0.0263672 0.731445 -0.747967 0.197924 -0.633539
-0.225586 -0.0263672 0.732269 -0.702993 0.361076 -0.612719
-0.171054 -0.0498047 0.696289 -0.0114705 0.52402 -0.851629
-0.172852 -0.0475163 0.696289 0.304534 0.442999 -0.843215
-0.161135 -0.0498047 0.696289 -0.362994 0.287393 -0.886364
-0.166992 -0.0498047 0.697209 -0.169604 0.469152 -0.866678
-0.161133 -0.049804 0.696289 -0.363054 0.287311 -0.886365
-0.0551174 -0.0498047 0.696289 0.604213 0.382698 -0.698905
-0.0556641 -0.0488173 0.696289 0.634422 0.341976 -0.693225
-0.0498047 -0.0498047 0.700361 0.573373 0.464082 -0.675183
0.00292969 -0.0498047 0.749281 0.302007 0.202254 -0.931603
0.00878906 -0.0498047 0.750531 0.715644 0.120639 -0.687968
-0.21938 -0.0380859 0.725586 -0.648832 0.0618117 -0.758417
-0.219727 -0.0365965 0.725586 -0.618148 0.0381342 -0.785137
-0.219727 -0.0380859 0.725918 -0.643846 0.0526696 -0.76334
-0.19043 -0.0380859 0.731273 0.672244 -0.737271 -0.0672287
0.00358391 -0.0380859 0.749023 0.141876 0.304423 -0.941912
0.00292969 -0.0376751 0.749023 -0.0025572 0.378982 -0.925401
0.00878906 -0.0380859 0.751887 0.637227 -0.0753805 -0.766981
-0.170312 -0.0263672 0.696289 0.764842 0.0530907 -0.642027
-0.161133 -0.0263672 0.702103 -0.593549 0.0251023 -0.804406
-0.15327 -0.0263672 0.696289 -0.458821 -0.00377504 -0.888521
-0.155273 -0.0263672 0.697377 -0.46414 0.0185242 -0.885568
-0.0676396 -0.0263672 0.696289 0.62425 0.290684 -0.725131
-0.0673828 -0.0263672 0.696604 0.610206 0.283548 -0.739763
0.00292969 -0.02223 0.749023 0.574176 -0.0935555 -0.813369
0.00292969 -0.0263672 0.75457 0.183647 -0.639623 -0.746429
0.00878906 -0.0263672 0.753382 0.574787 -0.141019 -0.80606
-0.225586 -0.0531948 0.731445 -0.676304 0.0737383 -0.732923
0.00292969 -0.0505133 0.749023 0.279174 0.228929 -0.932552
0.0103624 -0.0556641 0.749023 0.699669 0.374551 -0.60842
0.00878906 -0.0525161 0.749023 0.737509 0.234246 -0.633411
0.0146484 -0.0556641 0.753672 0.736083 0.400698 -0.545548
-0.224802 -0.0498047 0.731445 -0.666905 0.0833907 -0.740462
-0.225586 -0.0498047 0.732155 -0.701879 0.0851412 -0.70719
-0.170668 -0.0380859 0.702148 0.085081 -0.235811 -0.968067
-0.163727 -0.0380859 0.702148 -0.49032 0.174844 -0.853824
-0.166992 -0.0380859 0.704686 -0.511159 0.0483404 -0.858125
-0.0542771 -0.0380859 0.702148 0.531428 0.153354 -0.833107
-0.0556641 -0.0358201 0.702148 0.382626 0.207313 -0.900343
-0.0498047 -0.0380859 0.705145 0.78758 0.105844 -0.607055
-0.221498 -0.0439453 0.731445 -0.690615 -0.270952 -0.670549
-0.225586 -0.0439453 0.735108 -0.778781 -0.176299 -0.602012
-0.184669 -0.0439453 0.731445 -0.632382 0.174951 -0.754643
-0.19043 -0.0383198 0.731445 0.662544 -0.692107 -0.286395
-0.0451081 -0.0556641 0.702148 0.692814 0.223911 -0.685472
-0.0439453 -0.0556641 0.70329 0.67591 0.228561 -0.700647
-0.168124 -0.0322266 0.702148 -0.279692 0.194374 -0.940208
-0.16414 -0.0322266 0.702148 -0.481954 0.070408 -0.873363
-0.166992 -0.0322266 0.703235 -0.468282 0.143177 -0.871902
-0.0581776 -0.0322266 0.702148 0.339558 0.269432 -0.90117
-0.0615234 -0.0269278 0.702148 0.445947 0.216286 -0.868534
-0.0556641 -0.0322266 0.703601 0.307216 0.210823 -0.927993
-0.0498047 -0.0322266 0.705939 0.723787 -0.0737584 -0.68607
-0.166992 -0.0419984 0.702148 -0.560759 0.184607 -0.807137
-0.0517091 -0.0439453 0.702148 0.667776 0.183363 -0.721424
-0.0498047 -0.0439453 0.703961 0.74536 0.199768 -0.636028
0.0129091 -0.0322266 0.754883 0.759631 0.001948 -0.650352
0.0146484 -0.0322266 0.756156 0.831427 0.0190912 -0.555306
0.012484 -0.0498047 0.754883 0.780107 0.0284444 -0.624999
0.0146484 -0.0498047 0.757406 0.811301 0.0112327 -0.584521
-0.047417 -0.0498047 0.702148 0.644726 0.504317 -0.574449
-0.0498047 -0.0470182 0.702148 0.669677 0.375983 -0.640445
-0.0439453 -0.0498047 0.705209 0.540553 0.485123 -0.687356
0.0115871 -0.0439453 0.754883 0.759606 -0.0378515 -0.649282
0.0146484 -0.0439453 0.757684 0.806419 -0.0163301 -0.591119
0.0120646 -0.0380859 0.754883 0.746312 -0.139114 -0.650897
0.0146484 -0.0380859 0.757344 0.808634 -0.126852 -0.574473
-0.190594 -0.0380859 0.731445 0.692705 -0.70706 -0.142217
-0.19043 -0.0377945 0.731445 0.708452 -0.700032 -0.0897258
-0.19043 -0.0380859 0.732115 0.668794 -0.652706 -0.355934
-0.169051 -0.0263672 0.702148 -0.175838 -0.000725004 -0.984419
-0.1613 -0.0263672 0.702148 -0.588628 0.024593 -0.80803
-0.166992 -0.0263672 0.704652 -0.546901 -0.0130168 -0.837096
-0.061798 -0.0263672 0.702148 0.456902 0.207275 -0.865031
-0.0615234 -0.0263672 0.702372 0.447186 0.210009 -0.869437
-0.0556641 -0.0263672 0.705467 0.255993 0.253681 -0.932799
-0.0498047 -0.0263672 0.706864 0.561951 0.164302 -0.810689
0.0119243 -0.0263672 0.754883 0.752525 0.0589079 -0.655924
0.0146484 -0.0263672 0.756134 0.848901 0.0910373 -0.520653
-0.047299 -0.0380859 0.708008 0.710584 0.0992207 -0.696581
-0.0439453 -0.0380859 0.712809 0.357571 0.0162957 -0.933744
-0.0390819 -0.0556641 0.708008 0.57535 0.165074 -0.801076
-0.0380859 -0.0556641 0.708996 0.556997 0.147183 -0.817369
-0.0322266 -0.0556641 0.71339 0.575367 0.06827 -0.815041
0.0156748 -0.0556641 0.754883 0.7731 0.386363 -0.503032
0.0146484 -0.053744 0.754883 0.783474 0.274571 -0.557475
-0.0459166 -0.0439453 0.708008 0.60717 0.306069 -0.733257
-0.0439453 -0.0439453 0.710116 0.466425 0.31291 -0.827367
-0.0480697 -0.0322266 0.708008 0.695766 -0.17668 -0.6962
-0.0439453 -0.0322266 0.713383 0.56137 0.0377471 -0.826704
-0.227696 -0.0439453 0.737305 -0.785947 -0.286577 -0.54787
-0.231445 -0.0439453 0.742998 -0.937061 -0.0842848 -0.338841
0.0170145 -0.0498047 0.760742 0.842474 -0.0295825 -0.537925
0.0205078 -0.0498047 0.766063 0.909758 -0.0323589 -0.413876
0.016912 -0.0439453 0.760742 0.825176 0.00637806 -0.564839
0.0205078 -0.0439453 0.765448 0.894019 -0.0554775 -0.444581
-0.0412002 -0.0498047 0.708008 0.47395 0.440688 -0.762342
-0.0439453 -0.0467832 0.708008 0.500458 0.378706 -0.778539
-0.0380859 -0.0498047 0.710505 0.435192 0.398592 -0.807299
0.017985 -0.0322266 0.760742 0.840382 0.0829796 -0.535605
0.0205078 -0.0322266 0.764444 0.814764 0.102625 -0.570638
0.0170546 -0.0380859 0.760742 0.826252 -0.116395 -0.551145
0.0205078 -0.0380859 0.765676 0.827324 -0.178653 -0.532559
-0.0481091 -0.0263672 0.708008 0.610643 0.11924 -0.782877
-0.0498047 -0.0220741 0.708008 0.395886 0.263497 -0.879684
-0.0439453 -0.0263672 0.711299 0.655459 -0.0713345 -0.751854
-0.0418037 -0.0380859 0.713867 0.371919 -0.0318832 -0.927718
-0.0380859 -0.0380859 0.71553 0.426018 -0.0554591 -0.903013
-0.0322266 -0.0380859 0.718314 0.351747 0.0360415 -0.935401
0.0177313 -0.0263672 0.760742 0.845132 0.0921648 -0.526552
0.0205078 -0.0263672 0.765399 0.81204 0.0611463 -0.58039
-0.0316234 -0.0556641 0.713867 0.56953 0.0630982 -0.819545
-0.0322266 -0.0520477 0.713867 0.534764 0.179092 -0.825805
-0.0263672 -0.0556641 0.717767 0.597066 0.1284 -0.791849
-0.0381426 -0.0439453 0.713867 0.4134 0.267816 -0.870273
-0.0380859 -0.0439453 0.713901 0.413652 0.267958 -0.870109
-0.0322266 -0.0439453 0.716561 0.336707 0.212827 -0.917242
-0.0263672 -0.0439453 0.719232 0.517767 0.051558 -0.853967
-0.0426463 -0.0322266 0.713867 0.505734 0.17608 -0.844529
-0.0380859 -0.0322266 0.715409 0.295994 0.246589 -0.922812
-0.0322266 -0.0322266 0.718104 0.490726 0.172722 -0.854023
0.0201205 -0.0556641 0.760742 0.876405 0.241926 -0.416397
0.0205078 -0.0556641 0.761203 0.883909 0.227897 -0.408371
0.0207783 -0.0498047 0.766602 0.91262 -0.0246942 -0.408062
0.0211456 -0.0439453 0.766602 0.903523 -0.0855349 -0.419917
-0.0326887 -0.0498047 0.713867 0.477957 0.265878 -0.837178
-0.0380859 -0.0440072 0.713867 0.413397 0.268726 -0.869994
-0.0322266 -0.0498047 0.714158 0.477994 0.252894 -0.84117
-0.0263672 -0.0498047 0.718124 0.60924 0.0987667 -0.786811
0.0210582 -0.0380859 0.766602 0.835094 -0.184413 -0.518275
0.02198 -0.0322266 0.766602 0.803411 0.105695 -0.585969
-0.178711 -0.0380859 0.725086 -0.820548 0.163599 -0.547664
-0.0276825 -0.0380859 0.719727 0.487199 0.158973 -0.8587
-0.0263672 -0.0380859 0.720095 0.519709 0.189057 -0.833163
-0.0205078 -0.0380859 0.723207 0.835963 0.0981934 -0.53993
-0.0416881 -0.0263672 0.713867 0.536879 -0.216231 -0.815479
-0.0380859 -0.0263672 0.717734 0.344486 -0.132056 -0.929457
-0.0322266 -0.0263672 0.718704 0.625141 0.166083 -0.762637
0.0212764 -0.0263672 0.766602 0.791355 0.0569367 -0.6087
-0.18457 -0.0556641 0.724608 -0.950288 -0.0429035 -0.308404
-0.0233128 -0.0556641 0.719727 0.519517 0.213016 -0.827482
-0.0205078 -0.0556641 0.721542 0.438372 0.197397 -0.876849
-0.0146484 -0.0556641 0.72469 0.790865 0.112667 -0.60153
-0.18457 -0.0439453 0.725258 0.539525 -0.719527 0.437258
-0.178711 -0.0439453 0.725162 -0.807194 0.161164 -0.567859
-0.0256382 -0.0439453 0.719727 0.564907 0.0341097 -0.824449
-0.0263672 -0.0405052 0.719727 0.473892 0.13596 -0.870024
-0.0205078 -0.0439453 0.723271 0.803528 0.180136 -0.567358
-0.178711 -0.0322266 0.725264 -0.68163 -0.220382 -0.697719
-0.0286914 -0.0322266 0.719727 0.609046 0.268168 -0.746424
-0.0263672 -0.0322266 0.720853 0.644969 0.368284 -0.669613
-0.0205078 -0.0322266 0.725073 0.675749 0.25172 -0.692821
0.0236542 -0.0498047 0.772461 0.912367 0.112518 -0.393607
0.0263672 -0.0498047 0.777232 0.870632 0.250671 -0.423277
0.0228322 -0.0556641 0.766602 0.881659 0.193787 -0.430261
0.0236183 -0.0439453 0.772461 0.927967 -0.190185 -0.320479
0.0245405 -0.0380859 0.772461 0.871121 -0.292536 -0.394424
0.0263672 -0.0380859 0.775926 0.837437 -0.40602 -0.36585
-0.18457 -0.0498047 0.724979 -0.825048 0.316565 -0.468062
-0.0244172 -0.0498047 0.719727 0.593296 0.0547016 -0.803124
-0.0205078 -0.0498047 0.72305 0.593221 0.249575 -0.765376
0.0260592 -0.0322266 0.772461 0.774477 -0.162321 -0.611422
0.0263672 -0.0322266 0.772919 0.777109 -0.191181 -0.599625
-0.179073 -0.0380859 0.725586 -0.709962 0.139187 -0.690348
-0.18457 -0.0380859 0.731192 -0.514779 -0.000107761 -0.857323
-0.177394 -0.0380859 0.725586 -0.68546 0.190974 -0.702619
-0.178711 -0.0380859 0.727671 -0.786724 0.120704 -0.605389
-0.0190431 -0.0380859 0.725586 0.851531 0.0475006 -0.522149
-0.0305882 -0.0263672 0.719727 0.644808 0.221725 -0.731479
-0.0263672 -0.0263672 0.722639 0.675816 0.0693032 -0.733805
0.0253706 -0.0263672 0.772461 0.613883 0.00212486 -0.789394
0.0263672 -0.0263672 0.773748 0.583756 -0.0509294 -0.81033
-0.180667 -0.0556641 0.725586 -0.662493 0.061881 -0.746508
-0.18457 -0.0556641 0.729634 -0.785216 0.0474854 -0.617398
-0.013919 -0.0556641 0.725586 0.805324 0.109835 -0.582572
-0.0146484 -0.0506074 0.725586 0.759787 0.373166 -0.532419
0.0269523 -0.0498047 0.77832 0.816647 0.304317 -0.490387
0.0263672 -0.0468534 0.77832 0.913586 0.0555043 -0.40284
-0.18457 -0.0435568 0.725586 0.58106 -0.647277 0.493358
-0.177779 -0.0439453 0.725586 -0.718145 0.15912 -0.677457
-0.178711 -0.0439453 0.726568 -0.764287 0.179584 -0.619367
-0.0182167 -0.0439453 0.725586 0.793627 0.314266 -0.520954
-0.0146484 -0.0439453 0.729506 0.79516 0.351791 -0.493927
-0.178914 -0.0322266 0.725586 -0.613914 -0.193748 -0.765226
-0.17673 -0.0322266 0.725586 -0.587017 0.0387812 -0.808645
-0.178711 -0.0312829 0.725586 -0.637379 -0.139978 -0.757729
-0.178711 -0.0322266 0.727355 -0.765597 0.0109878 -0.643226
-0.0201319 -0.0322266 0.725586 0.69319 0.211794 -0.688935
-0.0205078 -0.0315704 0.725586 0.644494 0.224854 -0.7308
0.0258964 -0.0439453 0.77832 0.914532 -0.148391 -0.376313
0.0263672 -0.0418364 0.77832 0.903907 -0.210601 -0.372289
0.0263672 -0.0439453 0.779853 0.90299 -0.150555 -0.402421
0.0270839 -0.0380859 0.77832 0.821514 -0.428754 -0.375879
0.0252095 -0.0556641 0.772461 0.845074 0.229773 -0.482757
0.0263672 -0.0556641 0.774776 0.840551 0.262639 -0.473809
-0.180885 -0.0498047 0.725586 -0.60518 0.331616 -0.723732
-0.18457 -0.0498047 0.729388 -0.738427 0.308213 -0.599775
-0.178711 -0.0462717 0.725586 -0.717614 0.200431 -0.666976
-0.0149727 -0.0498047 0.725586 0.7496 0.402614 -0.525359
-0.0146484 -0.0498047 0.725743 0.756079 0.403433 -0.515351
0.0295088 -0.0322266 0.77832 0.963021 -0.177024 -0.203106
-0.182962 -0.0380859 0.731445 -0.57441 0.0895077 -0.813659
-0.18457 -0.0352563 0.731445 -0.379438 0.0093663 -0.92517
-0.18457 -0.0380859 0.732383 -0.516558 0.0449331 -0.855072
-0.0158257 -0.0380859 0.731445 0.85239 -0.0236247 -0.522373
-0.0146484 -0.0380859 0.73385 0.826715 -0.0224785 -0.562171
-0.0239732 -0.0263672 0.725586 0.618614 -0.0891173 -0.780624
-0.0205078 -0.0263672 0.729611 0.513863 -0.0794672 -0.854184
0.0317532 -0.0263672 0.77832 0.855756 -0.380011 -0.351102
0.0322266 -0.0249162 0.77832 0.856875 -0.28414 -0.43015
-0.0094589 -0.0556641 0.731445 0.8712 0.0963761 -0.481376
-0.00878906 -0.0556641 0.732358 0.880156 0.091987 -0.465686
0.028044 -0.0439453 0.78418 0.816856 -0.137844 -0.56013
0.0292933 -0.0380859 0.78418 0.889869 -0.331154 -0.313801
0.0301815 -0.0498047 0.78418 0.399449 0.551654 -0.732201
0.0322266 -0.0498047 0.787143 0.230155 0.469303 -0.852516
-0.184226 -0.0439453 0.731445 -0.641166 0.186496 -0.744396
-0.18457 -0.0439453 0.731818 -0.649693 0.170232 -0.740892
-0.0134226 -0.0439453 0.731445 0.734312 0.383507 -0.560097
-0.0146484 -0.0411218 0.731445 0.823721 0.193916 -0.532805
-0.0160146 -0.0322266 0.731445 0.800863 -0.10864 -0.588911
-0.0146484 -0.0322266 0.733513 0.818133 -0.134332 -0.559118
0.0286167 -0.0556641 0.77832 0.697019 0.347074 -0.627458
-0.18457 -0.0450118 0.731445 -0.66924 0.196683 -0.716543
-0.0103332 -0.0498047 0.731445 0.757185 0.366244 -0.540866
-0.00878906 -0.0498047 0.733445 0.785079 0.244285 -0.569188
0.0321507 -0.0322266 0.78418 0.787315 -0.382442 -0.483604
0.0322266 -0.0322266 0.78503 0.733154 -0.431269 -0.525825
-0.00613415 -0.0556641 0.737305 0.793438 0.0738526 -0.604153
-0.0124959 -0.0380859 0.737305 0.730121 0.0461947 -0.681754
-0.00878906 -0.0380859 0.742057 0.37235 0.423998 -0.825579
-0.00292969 -0.0380859 0.742451 0.618311 0.541102 -0.57
0.0318818 -0.0263672 0.78418 0.648937 -0.530379 -0.545507
0.0322266 -0.025746 0.78418 0.676927 -0.473543 -0.563495
0.0322266 -0.0263672 0.78508 0.616286 -0.519021 -0.592292
0.0380859 -0.0263672 0.7899 0.805048 -0.277887 -0.524096
-0.18457 -0.0241686 0.731445 -0.515599 0.111725 -0.849515
-0.0171807 -0.0263672 0.731445 0.690747 -0.0432062 -0.721804
-0.0146484 -0.0263672 0.732849 0.793217 -0.0770817 -0.604041
0.0314128 -0.0439453 0.790039 0.461911 0.198035 -0.864535
0.0322266 -0.0439453 0.791375 0.242537 0.324286 -0.914338
0.0380859 -0.0439453 0.790731 0.204919 0.581767 -0.787118
0.0322266 -0.0457255 0.790039 0.0333978 0.280632 -0.959234
0.0320575 -0.0380859 0.790039 0.720031 -0.0378907 -0.692907
0.0322266 -0.0363677 0.790039 0.732549 -0.184447 -0.655249
0.0322266 -0.0380859 0.790434 0.70352 -0.033145 -0.709903
0.0380859 -0.0380859 0.795063 0.611327 0.162938 -0.774423
-0.00970531 -0.0439453 0.737305 0.505866 0.251354 -0.82518
-0.00878906 -0.0439453 0.738622 0.435823 0.153473 -0.886851
-0.0122627 -0.0322266 0.737305 0.783993 -0.184859 -0.592607
-0.00878906 -0.0322266 0.742919 0.680919 -0.133009 -0.720179
0.0321198 -0.0556641 0.78418 0.596209 -0.0970335 -0.796944
0.0322266 -0.0556641 0.78435 0.594112 -0.104054 -0.797624
-0.0067147 -0.0498047 0.737305 0.759598 0.0686165 -0.646763
-0.00878906 -0.0455178 0.737305 0.568307 0.18438 -0.801892
0.0328563 -0.0322266 0.790039 0.52228 -0.557039 -0.645702
0.0380859 -0.0265145 0.790039 0.807556 -0.282424 -0.517773
-0.00309682 -0.0556641 0.743164 0.614371 0.156374 -0.773366
-0.00292969 -0.0556641 0.743472 0.600163 0.164915 -0.782693
-0.00216055 -0.0380859 0.743164 0.574555 0.569121 -0.588207
-0.00292969 -0.0372041 0.743164 0.649342 0.483007 -0.587418
-0.0112929 -0.0263672 0.737305 0.765562 -0.132235 -0.629626
-0.00878906 -0.0263672 0.740982 0.744984 -0.110936 -0.657794
0.0380859 -0.0341178 0.795898 0.72033 -0.387597 -0.575233
-0.00379491 -0.0439453 0.743164 0.680969 -0.18334 -0.70899
-0.00292969 -0.0408249 0.743164 0.707376 0.250164 -0.661087
-0.00292969 -0.0439453 0.743988 0.711773 -0.17225 -0.680962
-0.00848413 -0.0322266 0.743164 0.689333 -0.124265 -0.713707
-0.00292969 -0.0322266 0.74776 0.759446 0.00125082 -0.650569
0.0372701 -0.0556641 0.790039 0.481339 0.572413 -0.663819
0.0380859 -0.0556641 0.790442 0.602829 0.602829 -0.52268
-0.00339031 -0.0498047 0.743164 0.701295 0.0438108 -0.711524
-0.00292969 -0.0498047 0.743918 0.693136 0.0490149 -0.719138
0.037753 -0.0322266 0.795898 0.765214 -0.475376 -0.434126
0.0380859 -0.031863 0.795898 0.820917 -0.41536 -0.391882
0.0380859 -0.0322266 0.796297 0.816201 -0.426658 -0.389587
-0.0067482 -0.0263672 0.743164 0.690172 -0.0851038 -0.718623
-0.00292969 -0.0263672 0.747213 0.457044 -0.531853 -0.712912
0.00207353 -0.0439453 0.749023 0.486287 -0.117412 -0.865875
-0.001809 -0.0322266 0.749023 0.655034 0.0264001 -0.755138
0.00264812 -0.0498047 0.749023 0.327087 0.191091 -0.925472
-0.00157869 -0.0263672 0.749023 0.361609 -0.664068 -0.65441
-0.185539 -0.00878906 0.696289 -0.548052 -0.0332355 -0.835784
-0.19043 -0.00878906 0.699427 -0.498364 0.0728732 -0.8639
