ply
format ascii 1.0
comment author Lingfeng Ai
element vertex 825
property float x
property float y
property float z
property float nx
property float ny
property float nz
end_header
0.55113 -0.0380859 0.666992 -0.832014 0.285566 -0.47561
0.547852 -0.0380859 0.67212 -0.824126 0.199536 -0.530096
0.564202 -0.0380859 0.666992 0.423495 0.348077 -0.836358
0.301965 -0.0263672 0.696289 -0.988371 -0.119467 -0.0940753
0.301758 -0.0207804 0.696289 -0.990306 -0.0541946 -0.127891
0.303779 -0.0322266 0.702148 -0.992748 -0.0220626 -0.118175
0.541196 -0.0263672 0.666992 0.980752 -0.0945168 -0.17086
0.541992 -0.0209265 0.666992 0.94754 -0.275456 -0.162148
0.541992 -0.0263672 0.669871 0.938537 -0.0952949 -0.331764
0.553711 -0.0263672 0.669142 -0.0102569 0.587296 -0.809307
0.55957 -0.0263672 0.66871 0.508188 0.71418 -0.481343
0.536775 -0.0439453 0.666992 0.915328 -0.250791 -0.315085
0.547139 -0.0439453 0.666992 -0.934325 0.231616 -0.270909
0.547852 -0.0432489 0.666992 -0.93928 0.184141 -0.289561
0.547852 -0.0439453 0.671859 -0.934194 -0.328222 -0.139828
0.564062 -0.0439453 0.666992 0.621122 -0.0548037 -0.781796
0.532996 -0.0556641 0.666992 0.695307 -0.183268 -0.694954
0.545516 -0.0556641 0.666992 -0.893415 0.425235 -0.144865
0.303826 -0.0498047 0.702148 -0.999033 -0.0153163 0.0412173
0.303732 -0.0439453 0.702148 -0.948341 0.300433 0.101924
0.301962 -0.0556641 0.708008 -0.98945 0.127672 -0.0684738
0.301758 -0.0556641 0.710094 -0.990314 0.127969 -0.0538779
0.533417 -0.0498047 0.666992 0.627482 -0.552739 -0.548403
0.536133 -0.0444685 0.666992 0.918207 -0.258787 -0.299877
0.536133 -0.0498047 0.672394 0.819913 -0.406604 -0.403009
0.54756 -0.0498047 0.666992 -0.993453 0.0389148 0.107405
0.304796 -0.0380859 0.702148 -0.878738 -0.477304 -0.000521316
0.540493 -0.0322266 0.672852 0.470406 -0.00372791 -0.882442
0.541992 -0.0280607 0.672852 0.521079 0.187442 -0.832671
0.541992 -0.0322266 0.675069 -0.302966 0.304446 -0.903064
0.551195 -0.0322266 0.672852 -0.22155 0.839388 -0.496329
0.547852 -0.0322266 0.67572 0.115786 0.473833 -0.872969
0.302386 -0.0263672 0.702148 -0.964147 -0.202232 -0.171824
0.301758 -0.0237478 0.702148 -0.952414 -0.141668 -0.269885
0.301758 -0.0263672 0.707644 -0.978458 -0.133821 -0.157201
0.302595 -0.0322266 0.708008 -0.94342 -0.330179 -0.0306739
0.301758 -0.0266014 0.708008 -0.978643 -0.117209 -0.168879
0.540701 -0.0380859 0.672852 0.148278 -0.281016 -0.948179
0.546205 -0.0380859 0.672852 -0.505525 0.149187 -0.849817
0.547852 -0.0374811 0.672852 -0.722196 0.0817852 -0.686837
0.539709 -0.0439453 0.672852 0.691851 -0.0960237 -0.715627
0.548085 -0.0439453 0.672852 -0.947019 -0.31048 -0.0822007
0.547852 -0.0429976 0.672852 -0.969479 -0.242803 -0.034017
0.547852 -0.0439453 0.673308 -0.942321 -0.281379 -0.181264
0.542705 -0.0263672 0.672852 0.537245 0.319722 -0.780478
0.553001 -0.0263672 0.672852 0.473575 0.392993 -0.788216
0.547852 -0.0263672 0.676403 -0.326149 0.713463 -0.620159
0.535063 -0.0556641 0.672852 0.829851 -0.112654 -0.546495
0.536133 -0.0511227 0.672852 0.776081 -0.413142 -0.476457
0.536133 -0.0556641 0.675584 0.752312 -0.184106 -0.632559
0.544027 -0.0556641 0.672852 -0.93845 0.286517 -0.192925
0.302906 -0.0498047 0.708008 -0.990753 0.120868 -0.0616351
0.303643 -0.0439453 0.708008 -0.963699 0.258277 -0.0676613
0.301217 -0.0556641 0.713867 -0.977951 0.199547 -0.0615891
0.301758 -0.0541106 0.713867 -0.987435 0.157491 -0.0129714
0.304417 -0.0380859 0.708008 -0.901894 -0.397407 0.169281
0.536822 -0.0498047 0.672852 0.780257 -0.374632 -0.500849
0.546871 -0.0498047 0.672852 -0.905813 0.246689 -0.344452
0.541992 -0.0498047 0.678276 0.0566035 -0.580338 -0.812406
0.547852 -0.044822 0.672852 -0.955522 -0.217059 -0.199659
0.301686 -0.0263672 0.708008 -0.981333 -0.113032 -0.155591
0.302034 -0.0322266 0.713867 -0.892378 -0.450552 -0.0257718
0.301758 -0.0317584 0.713867 -0.918875 -0.394508 0.00574847
0.301758 -0.0322266 0.714353 -0.912333 -0.406756 -0.0468772
0.541077 -0.0380859 0.678711 -0.349695 -0.857535 -0.377289
0.544113 -0.0380859 0.678711 -0.390389 -0.765175 -0.51196
0.541992 -0.0364906 0.678711 -0.669654 -0.530306 -0.519941
0.541992 -0.0380859 0.68439 -0.554737 -0.639544 -0.532212
0.541992 -0.0263672 0.682366 -0.869506 -0.348507 -0.350004
0.547852 -0.0230482 0.678711 0.0896882 0.537513 -0.838472
0.541724 -0.0439453 0.678711 -0.050673 0.531272 -0.845684
0.543103 -0.0439453 0.678711 -0.141385 0.317869 -0.937534
0.541992 -0.0439453 0.678873 -0.0797663 0.52609 -0.84668
0.302652 -0.0498047 0.713867 -0.993524 0.113183 0.00996766
0.301758 -0.0498047 0.719377 -0.954762 0.0920337 -0.282772
0.303393 -0.0439453 0.713867 -0.982023 0.127477 -0.139217
0.539351 -0.0556641 0.678711 -0.0918066 -0.896468 -0.433494
0.54437 -0.0556641 0.678711 -0.966646 0.136587 -0.216656
0.541992 -0.0507221 0.678711 -0.0574185 -0.721551 -0.689976
0.541992 -0.0271006 0.68457 -0.93666 -0.0971295 -0.336501
0.304114 -0.0380859 0.713867 -0.962418 -0.124193 -0.241511
0.301758 -0.0380859 0.71917 -0.853211 -0.417577 -0.312507
0.541992 -0.0471677 0.678711 0.384832 -0.0632796 -0.920815
0.541291 -0.0263672 0.68457 -0.86184 -0.355084 -0.362143
0.542753 -0.0263672 0.68457 -0.870658 -0.232818 -0.433303
0.541992 -0.0250275 0.68457 -0.95401 -0.0753241 -0.290156
0.541992 -0.0263672 0.686691 -0.958488 -0.131296 -0.253104
0.301758 -0.0475291 0.719727 -0.946952 0.0743304 -0.312661
0.301899 -0.0439453 0.719727 -0.978966 0.0197464 -0.203064
0.301758 -0.0419736 0.719727 -0.981591 -0.119639 -0.148881
0.301758 -0.0439453 0.720002 -0.978594 0.0333273 -0.203085
0.540692 -0.0556641 0.68457 -0.952987 0.0337289 -0.301128
0.54252 -0.0556641 0.68457 -0.961417 0.0832702 -0.262191
0.37207 -0.0205078 0.602492 -0.133777 0.125345 -0.983053
0.366211 -0.00292969 0.606745 -0.318854 0.160775 -0.934068
0.37207 -0.00292969 0.604816 -0.421832 0.0445928 -0.905577
0.366211 -0.00878906 0.606216 -0.409059 0.114334 -0.905317
0.37207 -0.00878906 0.603786 -0.171139 0.0520891 -0.983869
0.366211 -0.0146484 0.606218 -0.501612 0.0479282 -0.863764
0.37207 -0.0146484 0.603128 -0.0487216 0.114441 -0.992235
0.366211 0.00292969 0.607693 -0.182208 0.317719 -0.930513
0.377794 0.00292969 0.602539 -0.15357 0.00653371 -0.988116
0.37207 0.00292969 0.605581 -0.604062 0.258275 -0.753925
0.360352 -0.0205078 0.607844 -0.339247 0.0482362 -0.93946
0.371993 -0.0205078 0.602539 -0.139755 0.122802 -0.982542
0.366211 -0.0205078 0.606553 -0.552645 -0.0365059 -0.832617
0.37207 -0.0201513 0.602539 -0.12459 0.124002 -0.984429
0.354492 -0.00292969 0.613133 -0.417388 -0.0041309 -0.908719
0.363667 -0.00292969 0.608398 -0.42036 0.0908657 -0.902796
0.360352 -0.00292969 0.610584 -0.491853 0.022241 -0.870394
0.354492 -0.00878906 0.612335 -0.423149 0.0575032 -0.904233
0.363231 -0.00878906 0.608398 -0.523221 0.0506978 -0.850688
0.360352 -0.00878906 0.610343 -0.509912 0.0428818 -0.859157
0.354492 0.00878906 0.613235 -0.422056 0.274791 -0.863921
0.360352 0.00878906 0.611207 -0.312971 0.211134 -0.925997
0.366211 0.00878906 0.609148 -0.0254492 0.325096 -0.945339
0.372354 0.00878906 0.608398 -0.157132 0.723604 -0.672091
0.37207 0.00878906 0.608637 -0.128918 0.702164 -0.700247
0.354492 -0.0146484 0.611368 -0.450137 0.168379 -0.876941
0.362141 -0.0146484 0.608398 -0.494404 0.0640429 -0.86687
0.360352 -0.0146484 0.609221 -0.463896 0.116001 -0.878262
0.354492 0.00292969 0.613494 -0.39608 0.0481308 -0.916954
0.364609 0.00292969 0.608398 -0.242725 0.26922 -0.93199
0.360352 0.00292969 0.610502 -0.401248 0.151773 -0.903308
0.366211 0.00581872 0.608398 -0.0994262 0.336475 -0.936429
0.37207 0.00823259 0.608398 -0.211896 0.67989 -0.702033
0.359051 -0.0205078 0.608398 -0.351588 0.0817877 -0.932575
0.354492 -0.0205078 0.610442 -0.398577 0.129786 -0.907905
0.360352 -0.0182273 0.608398 -0.391993 0.0675332 -0.917486
0.352974 -0.00292969 0.614258 -0.477849 -0.0131891 -0.878343
0.348633 -0.00292969 0.618097 -0.678102 -0.0268865 -0.734476
0.352438 -0.00878906 0.614258 -0.504206 0.06001 -0.861496
0.348633 -0.00878906 0.617512 -0.687125 0.0545839 -0.724486
0.351442 -0.0146484 0.614258 -0.557706 0.104355 -0.823452
0.348633 -0.0146484 0.616633 -0.669222 0.106104 -0.735448
0.353016 0.00878906 0.614258 -0.454343 0.308842 -0.835577
0.348633 0.00878906 0.617383 -0.523126 0.284084 -0.803515
0.354492 0.0114646 0.614258 -0.488434 0.232081 -0.841172
0.353363 0.00292969 0.614258 -0.444217 0.0439475 -0.894841
0.348633 0.00292969 0.618045 -0.647527 -0.0090846 -0.761989
0.350266 -0.0205078 0.614258 -0.625491 0.134269 -0.768591
0.348633 -0.0205078 0.61579 -0.64996 0.109516 -0.752036
0.346059 -0.00292969 0.620117 -0.649357 -0.0152446 -0.760331
0.342773 -0.00292969 0.622728 -0.655886 0.00673312 -0.75483
0.345299 -0.00878906 0.620117 -0.646021 0.0143205 -0.763185
0.342773 -0.00878906 0.621971 -0.613491 0.0423323 -0.788566
0.343896 -0.0146484 0.620117 -0.605864 0.153856 -0.780549
0.342773 -0.0146484 0.620907 -0.560957 0.162971 -0.811645
0.345754 0.00878906 0.620117 -0.573196 0.175739 -0.800351
0.342773 0.00878906 0.62286 -0.590736 0.0392384 -0.80591
0.346219 0.00292969 0.620117 -0.661372 -0.0499146 -0.748396
0.342773 0.00292969 0.623122 -0.649259 -0.0452549 -0.75922
0.442383 -0.00292969 0.590513 0.149196 -0.0903481 -0.984671
0.336914 -0.0205078 0.623953 -0.615264 0.202779 -0.761794
0.342803 -0.0205078 0.620117 -0.569102 0.132189 -0.811572
0.342773 -0.0205078 0.620138 -0.568055 0.132113 -0.812318
0.436523 0.00292969 0.589549 0.060775 0.0594153 -0.996382
0.442383 0.00292969 0.590225 0.0771815 0.0187813 -0.99684
0.454102 0.00292969 0.590337 -0.126817 -0.197163 -0.972134
0.459961 0.00292969 0.589714 -0.0507834 -0.230645 -0.971712
0.46582 0.00292969 0.589627 0.140997 -0.231812 -0.962488
0.47168 0.00292969 0.590605 0.27462 -0.242915 -0.930363
0.436523 0.00878906 0.590124 -0.0179705 0.012343 -0.999762
0.442383 0.00878906 0.590703 -0.0198918 -0.11818 -0.992793
0.448242 0.00878906 0.590621 -0.220593 -0.143616 -0.964735
0.454102 0.00878906 0.589108 -0.166616 -0.13615 -0.976577
0.459961 0.00878906 0.588434 -0.089052 -0.180577 -0.979521
0.46582 0.00878906 0.587978 0.146917 -0.197298 -0.969272
0.47168 0.00878906 0.589262 0.194639 -0.266387 -0.944009
0.477539 0.00878906 0.590701 0.420731 -0.297123 -0.857148
0.337471 -0.00878906 0.625977 -0.554943 0.0622761 -0.829554
0.336914 -0.00878906 0.626383 -0.556582 0.0516299 -0.829187
0.337986 -0.00292969 0.625977 -0.531029 0.00651415 -0.847329
0.336914 -0.00292969 0.626609 -0.519953 0.00557355 -0.854177
0.430664 -0.00878906 0.593116 -0.276554 -0.0541283 -0.959473
0.436523 -0.00878906 0.591151 -0.112694 -0.0615654 -0.991721
0.442383 -0.00664282 0.59082 0.168329 -0.0738706 -0.982959
0.442383 -0.00878906 0.591016 0.151431 -0.0656142 -0.986288
0.448242 -0.00878906 0.592297 0.251303 -0.166017 -0.953565
0.454102 -0.00878906 0.594173 -0.0970354 -0.316911 -0.943478
0.459961 -0.00878906 0.593493 -0.0197138 -0.341531 -0.939664
0.46582 -0.00878906 0.593505 0.12061 -0.274836 -0.953896
0.47168 -0.00878906 0.594128 0.303496 -0.170457 -0.937462
0.477539 -0.00878906 0.595829 0.386067 -0.0943084 -0.917637
0.337095 -0.0146484 0.625977 -0.63088 0.104949 -0.768749
0.336914 -0.0146484 0.626142 -0.6343 0.100437 -0.766535
0.430664 -0.0146484 0.594761 -0.352722 -0.217367 -0.910131
0.436523 -0.0146484 0.592383 -0.123229 -0.149718 -0.981019
0.442383 -0.0146484 0.592273 0.202814 -0.229909 -0.951845
0.448242 -0.0146484 0.594054 0.294243 -0.257037 -0.920518
0.454102 -0.0146484 0.595302 -0.008392 -0.189012 -0.981939
0.459961 -0.0146484 0.594637 -0.0957061 -0.159999 -0.982467
0.46582 -0.0146484 0.594209 0.0104914 -0.0401357 -0.999139
0.47168 -0.0146484 0.594024 0.254191 0.0317913 -0.966631
0.477539 -0.0146484 0.595638 0.338681 0.0797904 -0.937512
0.337796 0.00292969 0.625977 -0.582816 0.020776 -0.812338
0.336914 0.00292969 0.626478 -0.575604 0.0459839 -0.816434
0.338075 0.00878906 0.625977 -0.68803 0.0345876 -0.724858
0.336914 0.00878906 0.626916 -0.702119 0.0825917 -0.707254
0.424805 -0.0205078 0.596403 -0.583754 0.236579 -0.776699
0.430664 -0.0205078 0.592044 -0.298548 0.272612 -0.914632
0.436523 -0.0205078 0.591215 0.0841538 -0.00978162 -0.996405
0.442383 -0.0205078 0.59333 0.389702 -0.202922 -0.898307
0.448242 -0.0205078 0.595571 0.131006 -0.217995 -0.967117
0.454102 -0.0205078 0.595788 -0.126835 -0.0216773 -0.991687
0.459961 -0.0205078 0.59401 -0.154574 0.113991 -0.981383
0.46582 -0.0205078 0.593056 -0.0559201 0.14032 -0.988526
0.47168 -0.0205078 0.593305 0.288506 0.0987088 -0.952376
0.477539 -0.0205078 0.595334 0.326957 0.0536492 -0.943515
0.335169 -0.0205078 0.625977 -0.682991 0.218958 -0.696836
0.331055 -0.0205078 0.63166 -0.755901 0.120373 -0.643525
0.336914 -0.015061 0.625977 -0.639329 0.106396 -0.761537
0.430664 -0.00292969 0.592947 -0.33225 -0.137945 -0.933049
0.43863 -0.00292969 0.59082 0.0198342 -0.0802924 -0.996574
0.436523 -0.00211585 0.59082 -0.0362508 -0.115762 -0.992615
0.436523 -0.00292969 0.591029 -0.0625635 -0.140085 -0.988161
0.44368 -0.00292969 0.59082 0.111379 -0.100607 -0.988672
0.448242 -0.00292969 0.591864 0.016706 -0.189095 -0.981817
0.454102 0.000780225 0.59082 -0.130347 -0.22835 -0.964814
0.454102 -0.00292969 0.591698 -0.11809 -0.291344 -0.949302
0.459961 -0.00071454 0.59082 -0.00757937 -0.278486 -0.96041
0.459961 -0.00292969 0.591533 -0.00297892 -0.303162 -0.952934
0.46582 -0.000473142 0.59082 0.0879733 -0.284392 -0.954663
0.46582 -0.00292969 0.591644 0.112118 -0.340164 -0.933659
0.47168 0.00234592 0.59082 0.284098 -0.247426 -0.92632
0.47168 -0.00292969 0.592746 0.320763 -0.365228 -0.87391
0.477539 -0.00292969 0.595011 0.449451 -0.291898 -0.844269
0.424805 0.00292969 0.595758 -0.423302 -0.12183 -0.89776
0.433011 0.00292969 0.59082 -0.195006 0.0228993 -0.980535
0.430664 0.00292969 0.591788 -0.364945 -0.0190045 -0.930835
0.448043 0.00292969 0.59082 -0.164244 -0.104202 -0.980901
0.448514 0.00292969 0.59082 -0.170857 -0.118994 -0.978084
0.448242 0.0035274 0.59082 -0.191833 -0.114449 -0.974732
0.448242 0.00292969 0.590842 -0.172659 -0.110186 -0.978799
0.472176 0.00292969 0.59082 0.291404 -0.24961 -0.92346
0.477539 0.00847161 0.59082 0.424971 -0.297512 -0.854919
0.477539 0.00292969 0.592839 0.476732 -0.288428 -0.830383
0.483398 0.00292969 0.596339 0.475655 -0.272212 -0.836453
0.424805 0.00878906 0.594623 -0.297224 -0.133453 -0.945436
0.433114 0.00878906 0.59082 -0.146913 0.0721373 -0.986515
0.430664 0.00878906 0.591436 -0.260692 0.0255678 -0.965083
0.477764 0.00878906 0.59082 0.429204 -0.299203 -0.85221
0.483398 0.00878906 0.593952 0.520795 -0.302866 -0.798151
0.331061 -0.00292969 0.631836 -0.681943 0.0851688 -0.726429
0.331055 -0.00292969 0.631841 -0.681988 0.0852741 -0.726375
0.331879 -0.00878906 0.631836 -0.662857 -0.0437768 -0.747466
0.331055 -0.00878906 0.632624 -0.676789 -0.0525825 -0.734297
0.418945 -0.0146484 0.602367 -0.517995 -0.104283 -0.849003
0.427629 -0.0146484 0.59668 -0.517074 -0.236349 -0.822663
0.424805 -0.0146484 0.598585 -0.588325 -0.173725 -0.789742
0.480711 -0.0146484 0.59668 0.248297 0.133341 -0.959463
0.483398 -0.0146484 0.597537 0.189323 0.18285 -0.96474
0.489258 -0.0146484 0.597738 0.204438 0.341859 -0.917244
0.495117 -0.0146484 0.598781 0.39816 0.300308 -0.866766
0.500977 -0.0146484 0.602369 0.59239 0.0547882 -0.803786
0.325195 -0.0146484 0.637003 -0.698771 0.0663307 -0.712264
0.331648 -0.0146484 0.631836 -0.707898 -0.00616449 -0.706288
0.331055 -0.0146484 0.632461 -0.705249 -0.013945 -0.708822
0.418945 -0.00878906 0.601992 -0.512071 -0.239491 -0.82488
0.426095 -0.00878906 0.59668 -0.552594 -0.10148 -0.827249
0.424805 -0.00878906 0.597744 -0.567608 -0.133223 -0.812448
0.47974 -0.00878906 0.59668 0.358421 -0.0908273 -0.929131
0.483398 -0.00878906 0.598164 0.316774 0.00411047 -0.948492
0.489258 -0.00878906 0.599598 0.410418 0.177628 -0.89443
0.495117 -0.00878906 0.601691 0.345627 0.308 -0.886385
0.331548 0.00292969 0.631836 -0.699864 0.0737447 -0.710459
0.331055 0.00292969 0.632339 -0.706652 0.0709182 -0.703998
0.37793 -0.0205078 0.601634 0.333003 0.0747787 -0.939956
0.42447 -0.0205078 0.59668 -0.592659 0.229725 -0.771999
0.418945 -0.0205078 0.601832 -0.541351 0.0944409 -0.835476
0.424805 -0.0195791 0.59668 -0.584365 0.160969 -0.795366
0.481825 -0.0205078 0.59668 0.173316 0.0186946 -0.984689
0.483398 -0.0205078 0.597249 0.120958 0.0308203 -0.992179
0.489258 -0.0205078 0.597772 0.145488 -0.00382929 -0.989353
0.495117 -0.0205078 0.599226 0.450936 0.0248131 -0.892211
0.500977 -0.0205078 0.601678 0.613098 0.132353 -0.778841
0.332256 0.00878906 0.631836 -0.682401 0.197729 -0.703727
0.331055 0.00878906 0.633013 -0.706794 0.204476 -0.677224
0.330868 -0.0205078 0.631836 -0.751768 0.116417 -0.649071
0.325195 -0.0205078 0.637221 -0.667172 -0.0140056 -0.744772
0.331055 -0.0193399 0.631836 -0.743987 0.095939 -0.661271
0.37793 0.00292969 0.602483 -0.14115 -0.00266712 -0.989985
0.413086 0.00292969 0.600913 -0.402108 -0.171394 -0.899407
0.42287 0.00292969 0.59668 -0.425168 -0.147251 -0.893056
0.418945 0.00292969 0.598344 -0.297905 -0.104417 -0.948868
0.483908 0.00292969 0.59668 0.48033 -0.264274 -0.836327
0.489258 0.00292969 0.599604 0.588474 -0.126487 -0.798561
0.418945 -0.00292969 0.600377 -0.401185 -0.301975 -0.86479
0.425975 -0.00292969 0.59668 -0.482102 -0.0985273 -0.870557
0.424805 -9.799e-005 0.59668 -0.459331 -0.122557 -0.87977
0.424805 -0.00292969 0.597483 -0.48868 -0.114691 -0.864892
0.480832 -0.00292969 0.59668 0.427534 -0.210103 -0.879245
0.483398 0.00168884 0.59668 0.463816 -0.253057 -0.849021
0.483398 -0.00292969 0.597817 0.425444 -0.175858 -0.887734
0.489258 -0.00292969 0.600419 0.487036 -0.0953933 -0.868157
0.325576 -0.00292969 0.637695 -0.770781 0.0537169 -0.634832
0.325195 -0.00292969 0.638237 -0.774293 0.0394358 -0.631597
0.325337 -0.00878906 0.637695 -0.786131 -0.00947789 -0.617987
0.325195 -0.00878906 0.637862 -0.787604 -0.00611588 -0.616151
0.383789 0.00878906 0.601025 -0.0532821 -0.282165 -0.957885
0.407227 0.00878906 0.602076 -0.33278 -0.329859 -0.883431
0.413086 0.00878906 0.598832 -0.333471 -0.138701 -0.932501
0.420865 0.00878906 0.59668 -0.384206 -0.213018 -0.898337
0.418945 0.012532 0.59668 -0.357378 -0.139858 -0.923429
0.418945 0.00878906 0.597671 -0.347003 -0.206681 -0.914807
0.487016 0.00878906 0.59668 0.597056 -0.246031 -0.76354
0.489258 0.012574 0.59668 0.684529 -0.150054 -0.713375
0.489258 0.00878906 0.598056 0.657243 -0.182288 -0.731302
0.324568 -0.0146484 0.637695 -0.710072 0.0911046 -0.698211
0.325195 -0.00986516 0.637695 -0.777925 0.00805316 -0.628306
0.37793 -0.0146484 0.60282 0.221451 0.100498 -0.969979
0.383789 -0.0146484 0.604354 0.457676 0.178251 -0.871068
0.389648 -0.0146484 0.606813 0.470033 0.287712 -0.834441
0.401367 -0.0146484 0.607925 -0.524114 0.0214268 -0.851379
0.407227 -0.0146484 0.604744 -0.146784 -0.0608544 -0.987295
0.418481 -0.0146484 0.602539 -0.497927 -0.102179 -0.861178
0.413086 -0.0146484 0.604227 -0.268245 -0.11594 -0.956349
0.501113 -0.0146484 0.602539 0.590653 0.0548687 -0.805058
0.500977 -0.0136416 0.602539 0.575389 0.0811974 -0.81384
0.506836 -0.0146484 0.60717 0.749409 0.0583815 -0.659528
0.37793 -0.00878906 0.603565 0.310558 0.0581353 -0.948775
0.383789 -0.00878906 0.604952 0.598793 0.236753 -0.765111
0.401367 -0.00878906 0.607436 -0.591056 -0.0528068 -0.804901
0.407227 -0.00878906 0.604718 -0.191308 -0.140955 -0.971356
0.416876 -0.00878906 0.602539 -0.413837 -0.244131 -0.877006
0.413086 -0.00878906 0.603466 -0.323315 -0.203077 -0.924244
0.498073 -0.00878906 0.602539 0.368869 0.377067 -0.849562
0.495117 -0.0059514 0.602539 0.421919 0.160287 -0.892352
0.500977 -0.00878906 0.603406 0.379181 0.186486 -0.906336
0.506836 -0.00878906 0.607277 0.727931 -0.0583704 -0.683162
0.325479 0.00292969 0.637695 -0.736995 0.123347 -0.664548
0.325195 0.00292969 0.637996 -0.733958 0.126134 -0.667379
0.379531 -0.0205078 0.602539 0.310465 0.0402621 -0.949732
0.37793 -0.0159916 0.602539 0.232422 0.101288 -0.967327
0.383789 -0.0205078 0.604536 0.352284 0.0807789 -0.932401
0.389648 -0.0205078 0.60622 0.368338 0.211794 -0.905246
0.395508 -0.0205078 0.60759 -0.252892 0.333092 -0.908348
0.401367 -0.0205078 0.605993 -0.40325 0.260911 -0.877106
0.407227 -0.0205078 0.603941 -0.0168604 0.111022 -0.993675
0.416956 -0.0205078 0.602539 -0.474926 0.0675882 -0.877426
0.413086 -0.0205078 0.603948 -0.282781 0.0420383 -0.958263
0.501999 -0.0205078 0.602539 0.581116 0.140303 -0.801635
0.506836 -0.0205078 0.606046 0.730917 0.162052 -0.662948
0.326081 0.00878906 0.637695 -0.703897 0.142767 -0.695806
0.325195 0.00878906 0.638716 -0.703502 0.112173 -0.701784
0.32478 -0.0205078 0.637695 -0.674327 -0.0199842 -0.738163
0.379551 0.00292969 0.602539 0.131371 -0.0936771 -0.986897
0.37793 0.00340676 0.602539 -0.168475 0.0751621 -0.982836
0.383789 0.00347626 0.602539 0.511368 -0.435101 -0.741073
0.383789 0.00292969 0.602692 0.543836 -0.436012 -0.717033
0.409113 0.00292969 0.602539 -0.435922 -0.166038 -0.884536
0.407227 0.00645137 0.602539 -0.485885 -0.27284 -0.830346
0.407227 0.00292969 0.603279 -0.490822 -0.133573 -0.86096
0.49417 0.00292969 0.602539 0.592083 0.0615898 -0.80352
0.495117 0.00292969 0.603127 0.587893 0.0811092 -0.804862
0.500977 0.00292969 0.607001 0.733582 0.374502 -0.567102
0.321482 -0.00292969 0.643555 -0.806322 -0.0377066 -0.590274
0.319336 -0.00292969 0.646101 -0.81698 0.0448409 -0.57492
0.320229 -0.00878906 0.643555 -0.758007 0.120208 -0.641073
0.319336 -0.00878906 0.644636 -0.766403 0.122149 -0.630639
0.37793 0.00193894 0.602539 -0.0830959 -0.0627135 -0.994566
0.37793 -0.00292969 0.60285 0.24562 -0.3021 -0.92109
0.383789 -0.00292969 0.606093 0.68205 -0.280928 -0.675194
0.401367 -0.00292969 0.607845 -0.708324 0.0476612 -0.704276
0.407227 -0.00292969 0.60405 -0.343721 -0.262403 -0.901665
0.413368 -0.00292969 0.602539 -0.360749 -0.371242 -0.855593
0.413086 -0.00260317 0.602539 -0.366496 -0.354463 -0.860254
0.413086 -0.00292969 0.602633 -0.362475 -0.369181 -0.855755
0.493546 -0.00292969 0.602539 0.481546 -0.0175107 -0.876246
0.495117 -0.00292969 0.603347 0.507823 0.0282139 -0.860999
0.500977 -0.00292969 0.606084 0.419229 0.377775 -0.82555
0.506836 -0.00292969 0.60729 0.433109 0.0952307 -0.896297
0.319615 -0.0146484 0.643555 -0.783322 0.102515 -0.613105
0.319336 -0.0146484 0.643976 -0.794652 0.0938905 -0.599761
0.392642 -0.0146484 0.608398 0.0726091 0.390213 -0.917857
0.389648 -0.00960708 0.608398 0.404008 0.256379 -0.878093
0.400226 -0.0146484 0.608398 -0.53366 0.0309947 -0.845131
0.395508 -0.0146484 0.609853 -0.353613 0.266905 -0.896504
0.508159 -0.0146484 0.608398 0.699463 0.0539787 -0.712628
0.512695 -0.0146484 0.613589 0.68357 0.0581906 -0.727561
0.389259 -0.00878906 0.608398 0.36501 0.281771 -0.88734
0.389648 -0.00878906 0.608637 0.348759 0.254902 -0.901882
0.400345 -0.00878906 0.608398 -0.630195 -0.0270575 -0.775965
0.395508 -0.00878906 0.61234 -0.430601 0.0226218 -0.902259
0.507694 -0.00878906 0.608398 0.691453 -0.0647256 -0.719516
0.512695 -0.00878906 0.613829 0.759805 -0.0342006 -0.649251
0.321319 0.00292969 0.643555 -0.791787 0.0795977 -0.605588
0.319336 0.00292969 0.646804 -0.855214 0.0320751 -0.517281
0.379732 0.00878906 0.602539 -0.607366 0.354271 -0.711054
0.37793 0.00878906 0.60326 -0.636734 0.548303 -0.542156
0.386917 0.00878906 0.602539 0.19491 -0.565014 -0.801729
0.389648 0.0104553 0.602539 0.149235 -0.672662 -0.724745
0.389648 0.00878906 0.603736 0.296754 -0.709934 -0.638695
0.395508 0.0130982 0.602539 -0.0208531 -0.582831 -0.812325
0.406839 0.00878906 0.602539 -0.343871 -0.360838 -0.866919
0.401367 0.0130832 0.602539 -0.055503 -0.536915 -0.841808
0.49462 0.00878906 0.602539 0.697768 -0.0181117 -0.716094
0.495117 0.0107442 0.602539 0.74271 -0.000491152 -0.669613
0.495117 0.00878906 0.602929 0.695296 0.00678982 -0.718692
0.500977 0.00878906 0.607589 0.828525 -0.06543 -0.556116
0.395508 -0.0186074 0.608398 -0.22046 0.286179 -0.932469
0.509409 -0.0205078 0.608398 0.656504 0.20137 -0.726947
0.512695 -0.0205078 0.611971 0.629805 0.220439 -0.744817
0.321906 0.00878906 0.643555 -0.782293 0.10221 -0.614468
0.319336 0.00878906 0.647124 -0.860279 0.162762 -0.483145
0.319661 -0.0205078 0.643555 -0.814335 -0.0536738 -0.577907
0.319336 -0.0205078 0.644037 -0.822236 -0.0533627 -0.56664
0.316959 -0.00292969 0.649414 -0.864039 0.13078 -0.486141
0.31686 -0.00878906 0.649414 -0.81001 0.149383 -0.56707
0.388785 0.00292969 0.608398 0.44724 -0.52184 -0.726402
0.389648 0.00388396 0.608398 0.495965 -0.494581 -0.713728
0.389648 0.00292969 0.609231 0.462516 -0.484876 -0.742276
0.395508 0.00292969 0.611681 -0.0384278 -0.39103 -0.919575
0.402361 0.00292969 0.608398 -0.714283 -0.0663103 -0.696709
0.401367 0.00292969 0.609539 -0.710171 -0.0857886 -0.698783
0.502653 0.00292969 0.608398 0.420588 0.562869 -0.711536
0.506836 0.00292969 0.610786 0.135369 0.774107 -0.618412
0.512695 0.00292969 0.610948 0.365383 0.834839 -0.41175
0.38639 -0.00292969 0.608398 0.510692 -0.338202 -0.790451
0.389648 -0.00292969 0.611689 0.309116 -0.266485 -0.912926
0.400826 -0.00292969 0.608398 -0.698145 0.0663021 -0.71288
0.395508 -0.00292969 0.612391 -0.335295 -0.0173475 -0.941954
0.401367 -0.00124025 0.608398 -0.736289 0.00443337 -0.676653
0.508026 -0.00292969 0.608398 0.500362 -0.0738126 -0.862664
0.506836 -0.00135469 0.608398 0.250766 0.307086 -0.918049
0.512695 -0.00292969 0.612843 0.753451 -0.211642 -0.62251
0.316552 -0.0146484 0.649414 -0.803268 0.0163583 -0.595394
0.513553 -0.0146484 0.614258 0.646879 0.0858387 -0.757746
0.518555 -0.0146484 0.618293 0.605416 0.179823 -0.775329
0.513162 -0.00878906 0.614258 0.760982 -0.0196932 -0.648474
0.518555 -0.00878906 0.619767 0.694361 0.389265 -0.605257
0.318062 0.00292969 0.649414 -0.898996 0.0545671 -0.434544
0.515543 -0.0205078 0.614258 0.563534 0.20642 -0.799888
0.518555 -0.0205078 0.616813 0.603174 0.165867 -0.780172
0.316525 -0.0205078 0.649414 -0.82058 -0.0499477 -0.569345
0.37793 0.01173 0.608398 -0.783289 0.4946 -0.376602
0.394624 0.00878906 0.608398 0.0167652 -0.82657 -0.562584
0.395508 0.00933266 0.608398 -0.0129378 -0.816985 -0.576513
0.395508 0.00878906 0.609141 -0.00274555 -0.827656 -0.561229
0.40157 0.00878906 0.608398 -0.27113 -0.74832 -0.605398
0.401367 0.00891078 0.608398 -0.258669 -0.752572 -0.605578
0.401367 0.00878906 0.608594 -0.264774 -0.757246 -0.597053
0.501607 0.00878906 0.608398 0.780819 -0.0788375 -0.619763
0.500977 0.0128653 0.608398 0.804265 0.098493 -0.586052
0.318292 0.00878906 0.649414 -0.902968 0.162529 -0.397785
0.313852 -0.00292969 0.655273 -0.881586 0.179914 -0.436392
0.313477 -0.00292969 0.656023 -0.88257 0.184363 -0.432528
0.313594 -0.00878906 0.655273 -0.911388 0.0951562 -0.400396
0.313477 -0.00878906 0.655581 -0.912365 0.0882253 -0.399759
0.506836 0.00663829 0.614258 0.560969 0.379762 -0.735591
0.516458 0.00292969 0.614258 0.702892 0.420057 -0.574016
0.512695 0.00486183 0.614258 0.136925 0.691265 -0.70951
0.518555 0.00292969 0.617506 0.748422 0.345201 -0.566304
0.514119 -0.00292969 0.614258 0.826458 -0.240803 -0.508902
0.313479 -0.0146484 0.655273 -0.9384 0.0144672 -0.345248
0.313477 -0.0146484 0.65528 -0.938401 0.0144617 -0.345245
0.521633 -0.0146484 0.620117 0.755002 0.268009 -0.59845
0.524414 -0.0146484 0.622488 0.738672 0.396381 -0.545202
0.315082 0.00292969 0.655273 -0.900605 0.115077 -0.419128
0.313477 0.00292969 0.658804 -0.890431 0.112308 -0.441043
0.523093 -0.0205078 0.620117 0.745589 0.0979241 -0.659172
0.524414 -0.0205078 0.621331 0.769519 0.048418 -0.636786
0.519227 -0.00878906 0.620117 0.709672 0.401243 -0.579111
0.518555 -0.00666475 0.620117 0.788155 0.158484 -0.594722
0.524414 -0.00878906 0.625345 0.800833 0.408263 -0.438163
0.313612 -0.0205078 0.655273 -0.928723 -0.0358863 -0.369034
0.313477 -0.0205078 0.655602 -0.929588 -0.0325813 -0.367157
0.505365 0.00878906 0.614258 0.591679 0.298142 -0.749017
0.506836 0.00878906 0.615698 0.597009 0.291948 -0.747225
0.315984 0.00878906 0.655273 -0.897672 0.159159 -0.410917
0.313477 0.00878906 0.660419 -0.885784 0.130781 -0.44529
0.311549 -0.00292969 0.661133 -0.898351 0.158147 -0.409824
0.311239 -0.00878906 0.661133 -0.920767 0.0291421 -0.389024
0.527847 -0.0146484 0.625977 0.859655 0.365319 -0.35712
0.530273 -0.0146484 0.629733 0.896415 0.0852963 -0.434931
0.527903 -0.0205078 0.625977 0.952287 -0.0868235 -0.292594
0.311191 -0.0146484 0.661133 -0.929699 -0.0401164 -0.366128
0.518103 -0.00292969 0.620117 0.741907 -0.350505 -0.571594
0.518555 -0.000390053 0.620117 0.724489 -0.0347748 -0.688409
0.518555 -0.00292969 0.621191 0.689091 -0.36037 -0.628718
0.512695 0.00785387 0.620117 -0.0150395 0.122762 -0.992322
0.519919 0.00292969 0.620117 0.762768 0.440361 -0.473569
0.518555 0.00651896 0.620117 0.835765 0.34736 -0.425251
0.524414 0.00292969 0.624726 0.819274 0.330709 -0.468424
0.312601 0.00292969 0.661133 -0.893884 0.119539 -0.432067
0.524773 -0.00878906 0.625977 0.796182 0.422438 -0.433174
0.524414 -0.00799644 0.625977 0.837184 0.331086 -0.435321
0.311293 -0.0205078 0.661133 -0.923653 0.0485468 -0.380143
0.511875 0.00878906 0.620117 0.57703 -0.436014 -0.6906
0.31319 0.00878906 0.661133 -0.891848 0.126713 -0.434225
0.313477 0.0118316 0.661133 -0.880176 0.160065 -0.446845
0.309466 -0.00292969 0.666992 -0.919416 0.140982 -0.367148
0.307617 -0.00292969 0.672601 -0.934834 0.0988275 -0.341055
0.309126 -0.00878906 0.666992 -0.925561 0.0333512 -0.377126
0.307617 -0.00878906 0.670966 -0.943319 0.0554789 -0.327216
0.530859 -0.0146484 0.631836 0.893732 0.0598344 -0.444593
0.530273 -0.0129383 0.631836 0.85175 0.178622 -0.492561
0.530249 -0.0205078 0.631836 0.891684 0.0481743 -0.450088
0.530273 -0.0202634 0.631836 0.89518 0.0498628 -0.442906
0.530273 -0.0205078 0.631863 0.892735 0.0488004 -0.447932
0.308175 -0.0146484 0.666992 -0.917903 0.0132805 -0.396583
0.307617 -0.0146484 0.668282 -0.919871 0.0293742 -0.391119
0.3101 0.00292969 0.666992 -0.923423 0.145031 -0.355325
0.512695 0.00877857 0.625977 0.616342 0.0751565 -0.783884
0.518555 0.00831819 0.625977 0.39063 -0.0395219 -0.919699
0.525059 0.00292969 0.625977 0.819368 0.321618 -0.47455
0.524414 0.00449455 0.625977 0.832896 0.253511 -0.491952
0.521883 -0.00292969 0.625977 0.815819 -0.413412 -0.404388
0.524414 0.00142741 0.625977 0.867285 0.156329 -0.472628
0.524414 -0.00292969 0.630543 0.81518 -0.420928 -0.39787
0.528493 -0.00878906 0.631836 0.735138 0.390257 -0.554321
0.530273 -0.00878906 0.635686 0.724313 0.347296 -0.595614
0.308387 -0.0205078 0.666992 -0.911983 0.0434206 -0.407924
0.307617 -0.0205078 0.668603 -0.90015 0.0373789 -0.433972
0.512688 0.00878906 0.625977 0.616415 0.074362 -0.783902
0.512695 0.00885344 0.625977 0.616519 0.073856 -0.783868
0.512695 0.00878906 0.625985 0.617308 0.0746923 -0.783168
0.518555 0.00988901 0.625977 0.488529 -0.131682 -0.862554
0.518555 0.00878906 0.626972 0.280324 -0.158129 -0.946791
0.524414 0.00878906 0.628822 0.94688 0.179821 -0.266614
0.310916 0.00878906 0.666992 -0.928312 0.114893 -0.353605
0.307528 -0.00292969 0.672852 -0.934742 0.0957401 -0.342187
0.307617 -0.00166488 0.672852 -0.928873 0.101638 -0.356181
0.306962 -0.00878906 0.672852 -0.945312 0.0630581 -0.320015
0.533388 -0.0146484 0.637695 0.871402 -0.116993 -0.476415
0.53415 -0.0205078 0.637695 0.896351 0.0049482 -0.443317
0.306386 -0.0146484 0.672852 -0.93786 0.0711851 -0.339634
0.30793 0.00292969 0.672852 -0.91599 0.119395 -0.383024
0.307617 0.00292969 0.673617 -0.923175 0.117746 -0.365901
0.525025 -0.00292969 0.631836 0.812919 -0.41273 -0.410873
0.528142 0.00292969 0.631836 0.884086 0.393496 -0.252096
0.530273 0.00292969 0.637148 0.803562 0.480567 -0.351203
0.531709 -0.00878906 0.637695 0.815915 0.328021 -0.476115
0.530273 -0.00634384 0.637695 0.782314 0.305929 -0.542579
0.305981 -0.0205078 0.672852 -0.927626 0.0557656 -0.369323
0.526228 0.00878906 0.631836 0.927362 0.337746 -0.161018
0.308564 0.00878906 0.672852 -0.914913 0.13088 -0.381844
0.307617 0.00878906 0.675165 -0.932906 0.143892 -0.330124
0.305543 -0.00292969 0.678711 -0.972101 0.109186 -0.207602
0.3053 -0.00878906 0.678711 -0.973411 0.0129019 -0.228703
0.535664 -0.0146484 0.643555 0.887388 -0.00927148 -0.460931
0.536133 -0.0146484 0.645812 0.674584 0.0214806 -0.737886
0.535639 -0.0205078 0.643555 0.828608 0.155386 -0.537833
0.536133 -0.0205078 0.644288 0.822301 0.161252 -0.545727
0.304954 -0.0146484 0.678711 -0.968353 0.126407 -0.215205
0.305851 0.00292969 0.678711 -0.975564 0.0763147 -0.206036
0.530477 0.00292969 0.637695 0.790864 0.491122 -0.365147
0.530273 0.00333261 0.637695 0.790804 0.49963 -0.353553
0.5282 -0.00292969 0.637695 0.811623 -0.281057 -0.512128
0.530273 0.00217378 0.637695 0.823066 0.416934 -0.385652
0.530273 -0.00292969 0.640638 0.902731 -0.177903 -0.391698
0.30447 -0.0205078 0.678711 -0.970825 0.0723314 -0.228621
0.535594 -0.00878906 0.643555 0.822545 0.272996 -0.498892
0.536133 -0.00878906 0.645841 0.700193 0.222803 -0.678298
0.527579 0.00878906 0.637695 0.908509 0.376701 -0.180853
0.304197 -0.00292969 0.68457 -0.970402 0.0996658 -0.219968
0.303265 -0.00878906 0.68457 -0.980989 0.05453 -0.186246
0.306342 0.00878906 0.678711 -0.954998 0.1508 -0.255418
0.53841 -0.0146484 0.649414 0.942441 -0.0704475 -0.326866
0.540068 -0.0205078 0.649414 0.977906 -0.0963188 -0.185533
0.303352 -0.0146484 0.68457 -0.958377 0.138794 -0.249497
0.301758 -0.0146484 0.689339 -0.970776 0.146977 -0.189717
0.304757 0.00292969 0.68457 -0.958808 0.013037 -0.283756
0.532508 -0.00292969 0.643555 0.905825 0.0889911 -0.414199
0.533726 0.00292969 0.643555 0.806305 0.524653 -0.273151
0.530273 0.00701118 0.643555 0.743455 0.630666 -0.222564
0.303431 -0.0205078 0.68457 -0.972739 -0.00349296 -0.231876
0.538014 -0.00878906 0.649414 0.835108 0.247757 -0.491133
0.536133 -0.00329757 0.649414 0.722018 0.378932 -0.578879
0.541992 -0.00878906 0.654964 0.943812 -0.0294318 -0.32917
0.528898 0.00878906 0.643555 0.89353 0.402881 -0.198217
0.30293 -0.00292969 0.69043 -0.974398 -0.01873 -0.224047
0.303014 -0.00878906 0.69043 -0.963554 0.106027 -0.245605
0.304868 0.00878906 0.68457 -0.949514 0.178708 -0.257851
0.541431 -0.0146484 0.655273 0.944506 -0.238945 -0.225418
0.541992 -0.0092423 0.655273 0.943494 -0.0408505 -0.328862
0.541525 -0.0205078 0.655273 0.979863 -0.149286 -0.132594
0.301526 -0.0146484 0.69043 -0.976793 0.118991 -0.178095
0.301758 -0.0134195 0.69043 -0.971779 0.106804 -0.210329
0.302266 0.00292969 0.69043 -0.977383 0.176474 -0.116529
0.536028 -0.00292969 0.649414 0.736079 0.358232 -0.574332
0.536133 -0.00292969 0.64957 0.725813 0.363285 -0.58414
0.535388 0.00292969 0.649414 0.697166 0.610952 -0.375098
0.530273 0.00846815 0.649414 0.766914 0.239315 -0.595459
0.536133 0.00292969 0.653353 0.610677 0.733813 -0.297645
0.302179 -0.0205078 0.69043 -0.988296 -0.0662947 -0.137388
0.301758 -0.0173002 0.69043 -0.992017 0.0350757 -0.121128
0.301758 -0.0205078 0.696147 -0.990641 -0.0508622 -0.12666
0.542093 -0.00878906 0.655273 0.944562 -0.0298199 -0.326977
0.541992 -0.00789833 0.655273 0.942141 0.0389269 -0.33295
0.530008 0.00878906 0.649414 0.75814 0.218686 -0.614329
0.530273 0.00878906 0.649733 0.794084 0.218891 -0.567024
0.302711 -0.00292969 0.696289 -0.991678 0.00575305 -0.128618
0.30187 -0.00878906 0.696289 -0.965431 0.186792 -0.181798
0.301758 -0.00878906 0.696831 -0.965623 0.194917 -0.171985
0.303788 0.00878906 0.69043 -0.972242 0.183789 -0.1448
0.541481 -0.0205078 0.661133 0.974161 -0.218349 -0.0577403
0.541992 -0.0205078 0.666197 0.946949 -0.287917 -0.142799
0.541765 -0.0146484 0.661133 0.945113 -0.290968 -0.148656
0.541992 -0.0139961 0.661133 0.95485 -0.262371 -0.139368
0.541992 -0.0146484 0.661822 0.948956 -0.282968 -0.139325
0.302104 0.00292969 0.696289 -0.986023 0.155487 -0.059849
0.301592 -0.0146484 0.696289 -0.982696 -0.0350716 -0.181876
0.301758 -0.011307 0.696289 -0.966479 0.0956281 -0.238271
0.540754 -0.00292969 0.655273 0.896439 0.348272 -0.274049
0.541992 -0.00292969 0.656637 0.911621 0.385007 -0.143934
0.53755 0.00292969 0.655273 0.630969 0.748236 -0.204991
0.536133 0.00408196 0.655273 0.682842 0.699845 -0.20963
0.534823 0.00878906 0.655273 0.926898 0.280959 -0.248839
0.544163 -0.00878906 0.661133 0.996893 0.0413862 -0.0670136
0.301747 -0.0205078 0.696289 -0.990644 -0.0504736 -0.126797
0.302547 -0.00292969 0.702148 -0.960539 0.0298787 -0.276538
0.301758 -0.00573707 0.702148 -0.972659 0.0584883 -0.224752
0.304027 0.00878906 0.696289 -0.962964 0.194178 -0.187072
0.542053 -0.0205078 0.666992 0.942616 -0.290967 -0.163745
0.553711 -0.0205078 0.672063 0.194213 0.626034 -0.755224
0.543582 -0.0146484 0.666992 0.942144 -0.312255 -0.121904
0.544016 -0.00292969 0.661133 0.85686 0.508683 -0.0838582
0.541992 0.00284362 0.661133 0.882312 0.455042 -0.120258
0.303037 0.00292969 0.702148 -0.961123 0.183093 -0.206685
0.541925 0.00292969 0.661133 0.880317 0.458771 -0.12071
0.536133 0.00680637 0.661133 0.802162 0.254361 -0.540219
0.544938 -0.00878906 0.666992 0.981304 0.187427 -0.0437555
0.535271 0.00878906 0.661133 0.756032 0.391907 -0.524238
0.536133 0.00878906 0.661876 0.812 0.390092 -0.434147
0.54468 -0.0146484 0.672852 0.834702 -0.402359 -0.376005
0.542751 -0.0205078 0.672852 0.918487 -0.292357 -0.266289
0.553496 -0.0205078 0.672852 0.227813 0.726148 -0.648699
0.553711 -0.0194489 0.672852 0.123332 0.795983 -0.592621
0.303864 0.00878906 0.702148 -0.96636 0.241246 -0.0891575
0.544701 -0.00292969 0.666992 0.759213 0.62922 -0.166365
0.541992 0.00102949 0.666992 0.90409 0.2293 -0.360614
0.540486 0.00292969 0.666992 0.885575 0.1622 -0.435257
0.545435 -0.00878906 0.672852 0.784135 0.078187 -0.615645
0.540204 0.00878906 0.666992 0.639595 -0.0366369 -0.767838
0.536133 0.0145533 0.666992 0.907688 -0.324749 -0.265783
0.545496 -0.0146484 0.678711 0.462155 0.100356 -0.881102
0.547852 -0.0146484 0.681795 0.781878 0.567027 -0.259128
0.544338 -0.0205078 0.678711 0.189676 0.237316 -0.952735
0.551142 -0.0205078 0.678711 0.244174 0.685704 0.685704
0.547852 -0.0205078 0.680641 0.714176 0.519518 -0.469099
0.303281 0.00878906 0.708008 -0.961199 0.252718 -0.110588
0.541227 0.00292969 0.672852 0.625578 -0.094995 -0.774356
0.541992 0.00292969 0.675444 0.215092 0.284208 -0.934324
0.545056 -0.00292969 0.672852 0.232861 -0.042756 -0.97157
0.541992 0.00211966 0.672852 0.478814 -0.131926 -0.867947
0.546438 -0.00878906 0.678711 0.457351 0.136065 -0.878816
0.547852 -0.00878906 0.683337 0.623021 0.623021 -0.47296
0.541119 0.00878906 0.672852 -0.17339 0.219444 -0.960094
0.30325 0.00878906 0.713867 -0.955704 0.195674 -0.219869
0.541992 0.00717759 0.678711 -0.440649 0.782085 -0.440649
0.546008 -0.00292969 0.678711 0.603806 -0.563657 -0.563657
0.541532 0.00878906 0.678711 0.866097 -0.353466 -0.353466
0.360352 0.0205078 0.613788 -0.0915722 0.489783 -0.867022
0.366211 0.0205078 0.612922 0.059209 0.556131 -0.828983
0.37207 0.0205078 0.613147 0.165427 0.421547 -0.891589
0.354492 0.0263672 0.619061 -0.365665 0.255891 -0.894879
0.360352 0.0263672 0.616528 0.00313067 0.340599 -0.940203
0.366211 0.0263672 0.616626 -0.0956338 0.267624 -0.958766
0.37207 0.0263672 0.61715 -0.00124519 0.114012 -0.993479
0.354492 0.0322266 0.620055 -0.231046 0.434632 -0.870467
0.360352 0.0322266 0.618711 -0.114398 0.402468 -0.908258
0.366211 0.0322266 0.618825 -0.123863 0.350704 -0.928259
0.37207 0.0322266 0.618351 -0.426473 0.0943562 -0.899565
0.37207 0.0380859 0.619864 -0.543891 0.11181 -0.831674
0.360352 0.0146484 0.612261 -0.242779 0.28759 -0.926472
0.366211 0.0146484 0.610984 0.0142204 0.315736 -0.94874
0.37207 0.0146484 0.611337 0.38031 0.313246 -0.870196
0.354431 0.0322266 0.620117 -0.23973 0.433196 -0.868833
0.354492 0.0323845 0.620117 -0.228644 0.433075 -0.871876
0.360352 0.0346161 0.620117 -0.18485 0.336371 -0.923409
0.366211 0.0358239 0.620117 -0.135158 0.261702 -0.955638
0.35276 0.0263672 0.620117 -0.520554 0.215403 -0.826211
0.348633 0.0263672 0.623707 -0.714197 0.313867 -0.625628
0.359301 0.0205078 0.614258 -0.150275 0.46361 -0.873203
0.354492 0.0205078 0.616519 -0.388286 0.377595 -0.840628
0.360352 0.0215313 0.614258 -0.0607601 0.469534 -0.880821
0.366211 0.0227559 0.614258 0.0550353 0.439122 -0.89674
0.374831 0.0205078 0.614258 -0.0152687 0.254237 -0.967021
0.37207 0.0220644 0.614258 0.0847804 0.329347 -0.940395
0.354492 0.0380859 0.622717 -0.410848 0.355596 -0.839497
0.360352 0.0380859 0.621955 -0.183856 0.199984 -0.962395
0.370699 0.0380859 0.620117 -0.45846 0.087177 -0.884429
0.366211 0.0380859 0.620856 -0.188898 0.157816 -0.969233
0.37207 0.0423218 0.620117 -0.472533 -0.086128 -0.877094
0.360352 0.0439453 0.622754 -0.194887 0.174224 -0.965228
0.366211 0.0439453 0.622027 -0.370846 -0.00271046 -0.92869
0.372284 0.0439453 0.620117 -0.489547 -0.151991 -0.858628
0.37207 0.0447873 0.620117 -0.503969 -0.142271 -0.851924
0.37207 0.0439453 0.620217 -0.493704 -0.148677 -0.856826
0.348633 0.0146484 0.618948 -0.530503 0.18552 -0.827133
0.356758 0.0146484 0.614258 -0.394404 0.225223 -0.89091
0.354492 0.0146484 0.615557 -0.464492 0.182029 -0.866668
0.342773 0.0322266 0.63034 -0.347105 -0.185318 -0.919334
0.350245 0.0322266 0.625977 -0.643088 0.157703 -0.749378
0.348633 0.0322266 0.628009 -0.6786 0.0243495 -0.734104
0.342773 0.0205078 0.625058 -0.556082 0.473707 -0.682916
0.349655 0.0205078 0.620117 -0.544658 0.384972 -0.74508
0.348633 0.0205078 0.620854 -0.57375 0.394253 -0.717896
0.346624 0.0263672 0.625977 -0.61439 0.408763 -0.674861
0.342773 0.0263672 0.629175 -0.467536 0.34108 -0.815521
0.348633 0.029099 0.625977 -0.769158 0.189193 -0.610411
0.342773 0.0380859 0.62925 -0.184096 0.418648 -0.889294
0.35007 0.0380859 0.625977 -0.497529 0.488728 -0.716666
0.348633 0.0380859 0.626939 -0.500004 0.488595 -0.715032
0.354492 0.0424327 0.625977 -0.581565 0.235425 -0.778689
0.348633 0.0439453 0.631447 -0.624453 0.560326 -0.544144
0.355854 0.0439453 0.625977 -0.527364 0.191339 -0.827815
0.354492 0.0439453 0.626964 -0.60585 0.198178 -0.770501
0.346517 0.0146484 0.620117 -0.518058 0.23233 -0.823188
0.342773 0.0146484 0.622273 -0.541053 0.303205 -0.784429
0.348633 0.0181763 0.620117 -0.564195 0.290159 -0.772976
0.331055 0.0322266 0.636717 -0.557214 0.0772632 -0.826766
0.338674 0.0322266 0.631836 -0.45229 -0.0745363 -0.888751
0.336914 0.0322266 0.632467 -0.50269 0.0325209 -0.863855
0.337894 0.0263672 0.631836 -0.415758 0.146497 -0.897599
0.336914 0.0263672 0.632361 -0.424414 0.12131 -0.897305
0.341885 0.0205078 0.625977 -0.550645 0.475656 -0.685961
0.336914 0.0205078 0.631593 -0.607179 0.272579 -0.746348
0.342773 0.0218003 0.625977 -0.5674 0.439004 -0.696658
0.331055 0.0380859 0.636516 -0.0994332 0.266095 -0.958805
0.338933 0.0380859 0.631836 -0.58974 0.343246 -0.731019
0.336914 0.0380859 0.633432 -0.64658 0.394073 -0.653178
0.342773 0.0438564 0.631836 -0.342719 0.869484 -0.355727
0.331055 0.0439453 0.637011 0.391648 0.863858 -0.316798
0.343221 0.0439453 0.631836 -0.360463 0.857252 -0.367675
0.342773 0.0439453 0.631872 -0.346279 0.871225 -0.347933
0.348633 0.0442626 0.631836 -0.646509 0.548694 -0.530057
0.33933 0.0146484 0.625977 -0.656799 0.31415 -0.68551
0.336914 0.0146484 0.628799 -0.726087 0.280479 -0.627797
0.329992 0.0322266 0.637695 -0.625831 0.00492417 -0.779943
0.331098 0.0263672 0.637695 -0.705933 0.00240001 -0.708274
0.331055 0.0265936 0.637695 -0.705065 0.00289035 -0.709137
0.331055 0.0263672 0.63774 -0.705895 0.00196964 -0.708313
0.336682 0.0205078 0.631836 -0.611575 0.25652 -0.748447
0.331055 0.0205078 0.637141 -0.697145 0.11053 -0.708359
0.336914 0.0222112 0.631836 -0.535831 0.233791 -0.811312
0.329871 0.0380859 0.637695 -0.401833 0.150868 -0.9032
0.336914 0.0422155 0.637695 -0.358526 0.84914 -0.387841
0.3341 0.0146484 0.631836 -0.680158 0.283641 -0.675967
0.331055 0.0146484 0.63496 -0.694275 0.267566 -0.668125
0.329758 0.0439453 0.637695 0.312029 0.892244 -0.326404
0.333969 0.0439453 0.637695 -0.0173063 0.963615 -0.266732
0.331055 0.0447155 0.637695 0.49406 0.822481 -0.281833
0.338043 0.0439453 0.637695 -0.337191 0.90414 -0.262361
0.336914 0.0439453 0.638544 -0.328914 0.904667 -0.270911
0.342773 0.0457569 0.637695 -0.555109 0.761605 -0.334384
0.348633 0.0482832 0.637695 -0.863156 0.294161 -0.410403
0.325196 0.0322266 0.643555 -0.90598 0.0352282 -0.421852
0.325195 0.0322266 0.643556 -0.905976 0.0352489 -0.421858
0.32638 0.0263672 0.643555 -0.832952 -0.0152102 -0.553136
0.325195 0.0263672 0.645294 -0.84786 0.025442 -0.52961
0.33014 0.0205078 0.637695 -0.689457 0.118871 -0.714506
0.325195 0.0205078 0.641377 -0.726123 0.288161 -0.624267
0.331055 0.0259686 0.637695 -0.708399 0.00981135 -0.705744
0.325952 0.0380859 0.643555 -0.885597 0.00647247 -0.46441
0.325195 0.0380859 0.645343 -0.886839 -0.0328937 -0.460906
0.327475 0.0146484 0.637695 -0.621338 0.240329 -0.745776
0.325195 0.0146484 0.639652 -0.650053 0.227016 -0.725187
0.326372 0.0439453 0.643555 -0.225837 0.805252 -0.548239
0.325195 0.0439453 0.645758 -0.337787 0.642614 -0.687712
0.331055 0.0472333 0.643555 0.290905 0.592724 -0.751035
0.336914 0.0456783 0.643555 -0.136725 0.729303 -0.67039
0.342773 0.0475209 0.643555 -0.701587 0.575264 -0.420531
0.323073 0.0322266 0.649414 -0.839916 0.0772931 -0.537184
0.322273 0.0263672 0.649414 -0.804307 0.0928735 -0.586911
0.319336 0.0263672 0.65368 -0.86022 0.153621 -0.486233
0.436523 0.0146484 0.590774 -0.0506689 -0.158253 -0.986098
0.442383 0.0146484 0.590059 -0.0700164 -0.100486 -0.992472
0.448242 0.0146484 0.589526 -0.231594 -0.153498 -0.960626
0.454102 0.0146484 0.588499 -0.242301 -0.241912 -0.939558
0.459961 0.0146484 0.587061 -0.0383495 -0.235902 -0.97102
0.46582 0.0146484 0.586951 0.111022 -0.204712 -0.972506
0.47168 0.0146484 0.587695 0.17393 -0.170268 -0.969926
0.477539 0.0146484 0.588939 0.399638 -0.147509 -0.904727
0.436523 0.0205078 0.589528 0.0101404 -0.012891 -0.999866
0.442383 0.0205078 0.589617 -0.122123 -0.0606429 -0.990661
0.448242 0.0205078 0.58899 -0.286167 -0.0984653 -0.953107
0.454102 0.0205078 0.587145 -0.189246 -0.0239114 -0.981639
0.459961 0.0205078 0.585767 -0.0116757 0.0501032 -0.998676
0.46582 0.0205078 0.585705 0.138111 0.0690076 -0.98801
0.47168 0.0205078 0.586551 0.139918 0.00970685 -0.990115
0.477539 0.0205078 0.587994 0.353206 -0.101286 -0.930046
0.483398 0.0205078 0.590679 0.629047 -0.112392 -0.769199
0.430664 0.0263672 0.590372 -0.132531 -0.0299226 -0.990727
0.436523 0.0263672 0.589464 -0.0316578 -0.0511491 -0.998189
0.442383 0.0263672 0.589507 -0.235447 -0.156254 -0.959244
0.448242 0.0263672 0.588245 -0.143379 -0.0902371 -0.985545
0.454102 0.0263672 0.586915 -0.112715 0.0732133 -0.990927
0.459961 0.0263672 0.585979 -0.0202503 0.0658226 -0.997626
0.46582 0.0263672 0.586246 0.115687 0.00962854 -0.993239
0.47168 0.0263672 0.586868 0.102564 0.00411294 -0.994718
0.477539 0.0263672 0.587593 0.355401 0.0765762 -0.931572
0.483398 0.0263672 0.589874 0.579934 0.0261286 -0.814244
0.430664 0.0322266 0.589963 -0.10791 0.0317966 -0.993652
0.436523 0.0322266 0.589413 -0.176144 -0.0628322 -0.982357
0.442383 0.0322266 0.588633 -0.251313 -0.109255 -0.96172
0.448242 0.0322266 0.587282 0.0185459 -0.0304012 -0.999366
0.454102 0.0322266 0.587065 -0.0496278 0.0286018 -0.998358
0.459961 0.0322266 0.586428 -0.0582037 0.0612972 -0.996421
0.46582 0.0322266 0.58642 0.159033 0.130665 -0.978588
0.47168 0.0322266 0.586937 0.185068 0.256852 -0.948566
0.477539 0.0322266 0.587853 0.364209 0.251397 -0.896745
0.483398 0.0322266 0.590453 0.461087 0.130065 -0.877771
0.323585 0.0205078 0.643555 -0.745214 0.348566 -0.56847
0.325195 0.0238603 0.643555 -0.823128 0.120943 -0.554827
0.430664 0.0380859 0.590259 -0.110591 -0.131999 -0.985061
0.436523 0.0380859 0.589543 -0.239197 -0.108162 -0.964928
0.442383 0.0380859 0.587693 -0.107175 -0.00151523 -0.994239
0.448242 0.0380859 0.587276 -0.0378124 -0.00420155 -0.999276
0.454102 0.0380859 0.586991 0.0321681 -0.0337198 -0.998913
0.459961 0.0380859 0.586937 -0.0130478 0.0701279 -0.997453
0.46582 0.0380859 0.586866 0.267377 0.158446 -0.950476
0.47168 0.0380859 0.58821 0.222582 0.183082 -0.957569
0.477539 0.0380859 0.589694 0.350552 0.170196 -0.920949
0.323587 0.0380859 0.649414 -0.870488 -0.0346365 -0.49097
0.430664 0.0439453 0.58926 -0.106443 0.0385247 -0.993572
0.436523 0.0439453 0.588713 -0.126472 0.11764 -0.98497
0.442383 0.0439453 0.587502 -0.085003 0.178968 -0.980176
0.448242 0.0439453 0.587268 -0.061327 0.165577 -0.984288
0.454102 0.0439453 0.586922 0.0414825 0.176944 -0.983346
0.459961 0.0439453 0.587134 0.0238451 0.124726 -0.991905
0.46582 0.0439453 0.58771 0.296112 0.0745212 -0.952242
0.47168 0.0439453 0.589406 0.193449 0.0157364 -0.980984
0.477539 0.0439453 0.590669 0.412364 0.0406648 -0.910111
