ply
format ascii 1.0
comment author Lingfeng Ai
element vertex 849
property float x
property float y
property float z
property float nx
property float ny
property float nz
end_header
0.0998206 0.131836 0.59082 -0.545495 -0.803315 -0.238997
0.0966797 0.134501 0.59082 -0.460754 -0.815127 -0.351104
0.183445 0.131836 0.59082 0.549093 -0.823456 -0.142886
0.18457 0.132479 0.59082 0.651724 -0.727793 -0.213477
0.0821652 0.149414 0.579102 -0.578657 -0.746757 -0.327888
0.0791016 0.151918 0.579102 -0.679832 -0.690612 -0.246746
0.0791016 0.149414 0.584816 -0.691828 -0.659761 -0.293409
0.195658 0.143555 0.602539 0.264625 -0.918938 0.292449
0.196289 0.144132 0.602539 0.344235 -0.863314 0.369041
0.202148 0.145081 0.602539 0.731322 -0.431412 0.528253
0.102539 0.129 0.59668 -0.56735 -0.810907 -0.143335
0.108882 0.125977 0.59668 -0.431555 -0.880883 -0.194437
0.108398 0.126266 0.59668 -0.424853 -0.882989 -0.199574
0.108398 0.125977 0.598206 -0.417482 -0.890711 -0.179842
0.170606 0.125977 0.59668 0.317182 -0.948245 -0.0150463
0.172852 0.128124 0.59668 0.16163 -0.986794 -0.0106256
0.178711 0.128985 0.59668 0.631288 -0.77523 -0.0222347
0.192073 0.137695 0.608398 0.927391 -0.195539 0.318922
0.19043 0.137695 0.61244 0.975351 -0.166574 0.144716
0.20613 0.149414 0.59668 0.531837 -0.845799 -0.0421188
0.208008 0.151248 0.59668 0.831558 -0.553772 -0.0429818
0.19056 0.125977 0.643555 0.704508 -0.412352 -0.57761
0.0846833 0.143555 0.584961 -0.639102 -0.687221 -0.345363
0.0791016 0.149341 0.584961 -0.689976 -0.661158 -0.294625
0.19043 0.123767 0.649414 0.570679 -0.713105 -0.407193
0.0899386 0.137695 0.59082 -0.593858 -0.772997 -0.22318
0.0849609 0.141804 0.59082 -0.535397 -0.774819 -0.336163
0.189227 0.137695 0.59082 0.695679 -0.670451 -0.257928
0.108398 0.124626 0.602539 -0.392241 -0.905196 -0.163605
0.117381 0.120117 0.602539 -0.368661 -0.921091 -0.125221
0.114258 0.121252 0.602539 -0.453322 -0.885883 -0.0985409
0.114258 0.120117 0.60583 -0.45481 -0.865281 -0.2108
0.168477 0.120117 0.602539 0.817956 -0.370718 -0.439905
0.0908203 0.136723 0.59668 -0.645392 -0.741137 -0.184893
0.0984868 0.131836 0.59668 -0.452258 -0.872687 -0.184066
0.0966797 0.132969 0.59668 -0.431595 -0.872109 -0.230546
0.0966797 0.131836 0.600636 -0.418928 -0.891792 -0.170897
0.183559 0.131836 0.59668 0.346462 -0.932235 -0.104412
0.18457 0.132448 0.59668 0.381981 -0.907737 -0.173506
0.0790222 0.149414 0.584961 -0.69433 -0.656775 -0.294198
0.194005 0.143555 0.608398 0.25684 -0.866131 0.428779
0.19043 0.143555 0.614241 -0.970067 0.242793 0.00461002
0.196289 0.145801 0.608398 0.653752 -0.297817 0.695639
0.202148 0.149024 0.608398 -0.227036 -0.870462 0.436749
0.19043 0.131836 0.641884 0.56024 0.267462 -0.783962
0.206476 0.149414 0.602539 0.432103 -0.85528 0.285979
0.208008 0.151031 0.602539 0.843813 -0.454288 0.285661
0.19043 0.137695 0.617114 -0.961944 0.114791 0.247964
0.0966797 0.130822 0.602539 -0.469482 -0.859731 -0.201121
0.105922 0.125977 0.602539 -0.402615 -0.896783 -0.183524
0.102539 0.127568 0.602539 -0.536424 -0.820984 -0.195538
0.102539 0.125977 0.606547 -0.497307 -0.838673 -0.222066
0.171021 0.125977 0.602539 0.498156 -0.852152 -0.160244
0.172852 0.127982 0.602539 0.383142 -0.896104 0.224054
0.172852 0.125977 0.60671 0.860794 -0.470577 -0.193885
0.178711 0.128704 0.602539 0.450935 -0.861796 0.232304
0.194112 0.125977 0.649414 0.596998 -0.565006 -0.569527
0.196289 0.129089 0.649414 0.699557 -0.324974 -0.636405
0.196289 0.125977 0.652574 0.637611 -0.580343 -0.506611
0.19043 0.122124 0.655273 0.487219 -0.795067 -0.36123
0.19043 0.120117 0.661112 0.36531 -0.891726 -0.267158
0.196289 0.124931 0.655273 0.58132 -0.696187 -0.421177
0.0828866 0.143555 0.59082 -0.697881 -0.624757 -0.350202
0.0791016 0.147308 0.59082 -0.651005 -0.716346 -0.251078
0.0896896 0.137695 0.59668 -0.575848 -0.795024 -0.19062
0.0849609 0.140492 0.59668 -0.551832 -0.810597 -0.195993
0.0953496 0.131836 0.602539 -0.514038 -0.847813 -0.130298
0.0908203 0.135328 0.602539 -0.625555 -0.775778 -0.082762
0.183669 0.131836 0.602539 0.357624 -0.921581 0.150972
0.18457 0.132362 0.602539 0.374004 -0.902035 0.215532
0.102539 0.125497 0.608398 -0.495914 -0.843601 -0.205927
0.113205 0.120117 0.608398 -0.444696 -0.863164 -0.239151
0.108398 0.123403 0.608398 -0.3 -0.902702 -0.30843
0.170964 0.120117 0.608398 0.619592 -0.548516 -0.561458
0.172852 0.122614 0.608398 0.880484 -0.251724 -0.401726
0.172852 0.120117 0.61123 0.921406 -0.374734 -0.102889
0.1926 0.131836 0.643555 0.572163 0.117477 -0.811683
0.19043 0.135791 0.643555 0.158333 0.807392 -0.568374
0.196289 0.131836 0.646961 0.637392 -0.167771 -0.752054
0.0766642 0.149414 0.59082 -0.779261 -0.575419 -0.248286
0.0732422 0.153555 0.59082 -0.648088 -0.687704 -0.327178
0.143555 0.155249 0.59082 0.0063132 0.0112656 0.999917
0.166992 0.149414 0.596629 -0.352005 0.348313 0.868775
0.196289 0.143555 0.618204 0.898279 0.118853 0.423047
0.196289 0.149414 0.61422 0.704058 -0.710013 0.0135635
0.202553 0.149414 0.608398 -0.24473 -0.904762 0.348587
0.202148 0.149414 0.608742 -0.295061 -0.900939 0.318195
0.208008 0.152518 0.608398 0.900531 -0.294712 0.31967
0.191219 0.137695 0.620117 0.617238 -0.253771 0.744727
0.19043 0.137695 0.621805 0.930005 -0.0212888 0.36693
0.196289 0.141768 0.620117 0.606808 -0.00767102 0.794812
0.101497 0.125977 0.608398 -0.518532 -0.830431 -0.203738
0.0966797 0.129034 0.608398 -0.412054 -0.873178 -0.26033
0.174511 0.125977 0.608398 0.936916 -0.348463 0.0276129
0.178711 0.130671 0.608398 0.128077 -0.965553 0.226502
0.19874 0.125977 0.655273 0.696851 -0.552983 -0.456737
0.202148 0.129815 0.655273 0.593233 -0.557622 -0.580631
0.202148 0.125977 0.659899 0.620332 -0.662187 -0.420352
0.0813608 0.143555 0.59668 -0.714408 -0.669175 -0.204515
0.0791016 0.146124 0.59668 -0.703876 -0.670603 -0.234203
0.166992 0.149372 0.59668 -0.341472 0.347168 0.873425
0.190445 0.120117 0.661133 0.365026 -0.891824 -0.267217
0.196289 0.122832 0.661133 0.492814 -0.783517 -0.378464
0.202148 0.125545 0.661133 0.622917 -0.666247 -0.409988
0.0879089 0.137695 0.602539 -0.469908 -0.856755 -0.212502
0.0849609 0.139237 0.602539 -0.606769 -0.776798 -0.168571
0.0849609 0.137695 0.608265 -0.614427 -0.780509 -0.115258
0.197909 0.143555 0.620117 0.668813 0.0197972 0.743167
0.0849609 0.137659 0.608398 -0.61511 -0.780018 -0.114945
0.0918643 0.131836 0.608398 -0.627972 -0.72825 -0.274416
0.0908203 0.132705 0.608398 -0.598325 -0.758179 -0.259176
0.0908203 0.131836 0.612981 -0.651139 -0.729525 -0.20931
0.182222 0.131836 0.608398 0.412919 -0.907534 0.0766823
0.178711 0.131836 0.609756 0.0917237 -0.981775 0.166448
0.18457 0.132234 0.608398 0.622333 -0.764512 0.167998
0.0764316 0.149414 0.59668 -0.75686 -0.618319 -0.211764
0.0732422 0.152479 0.59668 -0.631028 -0.750109 -0.197837
0.167124 0.149414 0.59668 -0.337026 0.331211 0.881313
0.18457 0.149414 0.602475 -0.403185 0.822062 0.402063
0.198449 0.131836 0.649414 0.650093 -0.274068 -0.708707
0.202148 0.131836 0.653558 0.571801 -0.470158 -0.672306
0.102539 0.124632 0.614258 -0.57054 -0.808988 -0.1415
0.112078 0.120117 0.614258 -0.395804 -0.911588 -0.11111
0.108398 0.122051 0.614258 -0.313228 -0.927036 -0.206135
0.175223 0.120117 0.614258 0.931421 0.343728 0.119608
0.172852 0.120117 0.619637 0.97894 -0.200572 0.0380431
0.0908203 0.131684 0.614258 -0.658645 -0.727283 -0.19299
0.10076 0.125977 0.614258 -0.495475 -0.85752 -0.138434
0.0966797 0.128574 0.614258 -0.389915 -0.886155 -0.250391
0.177106 0.125977 0.614258 0.931611 -0.140188 0.335333
0.20268 0.125977 0.661133 0.591635 -0.68923 -0.418247
0.208008 0.131202 0.661133 0.558196 -0.606671 -0.56601
0.193207 0.120117 0.666992 0.382649 -0.880143 -0.280941
0.196289 0.120747 0.666992 0.514992 -0.812014 -0.27462
0.196289 0.120117 0.669113 0.52326 -0.797792 -0.299545
0.202148 0.123125 0.666992 0.593055 -0.775286 -0.217294
0.202148 0.120117 0.672162 0.561949 -0.558043 -0.610574
0.08033 0.143555 0.602539 -0.682148 -0.718281 -0.136917
0.0791016 0.144825 0.602539 -0.714767 -0.683345 -0.148819
0.0791016 0.143555 0.606601 -0.675418 -0.712504 -0.190129
0.18457 0.149355 0.602539 -0.41267 0.814022 0.408743
0.0849267 0.137695 0.608398 -0.616649 -0.778926 -0.114095
0.0791016 0.143106 0.608398 -0.651831 -0.728887 -0.209381
0.149414 0.137695 0.614141 0.998156 -0.0485608 0.0364073
0.203721 0.131836 0.655273 0.530263 -0.543554 -0.65067
0.208008 0.137091 0.655273 0.594727 0.137399 -0.792099
0.208008 0.131836 0.660052 0.589908 -0.56053 -0.581218
0.0748483 0.149414 0.602539 -0.718431 -0.670878 -0.183794
0.0732422 0.151027 0.602539 -0.724731 -0.670303 -0.159556
0.0732422 0.149414 0.608224 -0.752516 -0.630876 -0.188984
0.184628 0.149414 0.602539 -0.40639 0.821701 0.399567
0.0906059 0.131836 0.614258 -0.655781 -0.730225 -0.191629
0.0849609 0.136454 0.614258 -0.629333 -0.758173 -0.17063
0.149414 0.1376 0.614258 0.999029 0.0162305 -0.0409589
0.177376 0.131836 0.614258 0.00134678 -0.928978 0.370133
0.178711 0.133138 0.614258 -0.40236 -0.779234 0.480522
0.18457 0.133256 0.614258 0.827813 -0.551217 -0.104335
0.102539 0.124248 0.620117 -0.530224 -0.843015 -0.090493
0.111465 0.120117 0.620117 -0.336158 -0.904576 -0.262182
0.108398 0.120981 0.620117 -0.410241 -0.89647 -0.167464
0.108398 0.120117 0.623434 -0.492587 -0.844801 -0.208972
0.172464 0.120117 0.620117 0.954578 -0.296182 0.0325161
0.172852 0.120232 0.620117 0.979402 -0.201617 0.0110729
0.172852 0.120117 0.622665 0.961145 -0.262825 -0.0843968
0.0908203 0.130982 0.620117 -0.621988 -0.768847 -0.14834
0.0998527 0.125977 0.620117 -0.378374 -0.902119 -0.2074
0.0966797 0.12712 0.620117 -0.443201 -0.880012 -0.170737
0.0966797 0.125977 0.624121 -0.462438 -0.86369 -0.200477
0.175887 0.125977 0.620117 0.947281 0.280966 -0.153999
0.205599 0.125977 0.666992 0.442921 -0.807746 -0.389059
0.208008 0.12806 0.666992 0.492072 -0.756088 -0.431504
0.208008 0.125977 0.671712 0.421432 -0.816799 -0.393998
0.213867 0.130928 0.666992 0.61019 -0.632114 -0.477599
0.203133 0.120117 0.672852 0.534364 -0.54757 -0.643912
0.208008 0.124835 0.672852 0.409373 -0.803736 -0.431766
0.208008 0.120117 0.676742 0.457262 -0.448822 -0.76777
0.19043 0.137695 0.644634 0.206693 0.79433 -0.571243
0.196289 0.137695 0.64731 -0.271374 0.851434 -0.448795
0.0785848 0.143555 0.608398 -0.684464 -0.697349 -0.212636
0.0732422 0.149361 0.608398 -0.752155 -0.630965 -0.190121
0.143555 0.143555 0.612401 -0.269462 0.912179 0.308739
0.0837272 0.137695 0.614258 -0.633501 -0.753277 -0.176777
0.0791016 0.14132 0.614258 -0.588607 -0.796053 -0.14086
0.14932 0.137695 0.614258 0.999929 -0.00841384 -0.00841384
0.143555 0.142052 0.614258 -0.590418 0.751405 0.294615
0.189675 0.137695 0.614258 0.903931 0.379226 0.197727
0.20926 0.131836 0.661133 0.608724 -0.535309 -0.585576
0.213867 0.136943 0.661133 0.571317 -0.332263 -0.750465
0.213867 0.131836 0.665334 0.618401 -0.601746 -0.505452
0.0731971 0.149414 0.608398 -0.75424 -0.628647 -0.189539
0.0895659 0.131836 0.620117 -0.581964 -0.790624 -0.190347
0.0849609 0.135026 0.620117 -0.641725 -0.732726 -0.2265
0.176925 0.131836 0.620117 0.0660585 -0.472776 0.878703
0.178711 0.136754 0.620117 -0.343131 -0.149598 0.927298
0.18457 0.133615 0.620117 0.274933 -0.353487 0.894125
0.0966797 0.125185 0.625977 -0.449805 -0.859522 -0.24269
0.105049 0.120117 0.625977 -0.531053 -0.791701 -0.301982
0.102539 0.121252 0.625977 -0.435578 -0.8465 -0.30612
0.102539 0.120117 0.628044 -0.449784 -0.803783 -0.389392
0.173223 0.120117 0.625977 0.935044 -0.0247179 -0.353668
0.20948 0.125977 0.672852 0.44256 -0.795044 -0.414783
0.213867 0.127842 0.672852 0.564878 -0.679066 -0.468809
0.213867 0.125977 0.676112 0.49078 -0.693569 -0.527349
0.0951874 0.125977 0.625977 -0.522429 -0.821218 -0.229497
0.0908203 0.128928 0.625977 -0.535757 -0.815538 -0.218774
0.176015 0.125977 0.625977 0.49655 0.733879 -0.46353
0.19043 0.142646 0.649414 0.925498 0.353756 -0.135314
0.200037 0.137695 0.649414 0.184261 0.429878 -0.883885
0.196289 0.138621 0.649414 -0.48543 0.815866 -0.314198
0.202148 0.137695 0.650912 0.513776 0.383717 -0.76733
0.208008 0.137695 0.654727 0.547809 0.240764 -0.80121
0.211974 0.120117 0.678711 0.476048 -0.403033 -0.781629
0.213867 0.121852 0.678711 0.385502 -0.549712 -0.741084
0.213867 0.120117 0.679666 0.411569 -0.408058 -0.814923
0.219727 0.120117 0.682867 0.640595 -0.631466 -0.436907
0.19043 0.143555 0.650292 0.94226 0.296304 -0.156043
0.202148 0.143555 0.653683 0.0160911 0.785245 -0.618977
0.0766287 0.143555 0.614258 -0.7469 -0.649447 -0.142685
0.0732422 0.147383 0.614258 -0.733782 -0.667991 -0.123903
0.141278 0.143555 0.614258 -0.232631 0.78688 0.571579
0.0818397 0.137695 0.620117 -0.574933 -0.779055 -0.250051
0.0791016 0.13987 0.620117 -0.689672 -0.694715 -0.204263
0.0791016 0.137695 0.624759 -0.662923 -0.68517 -0.301786
0.178711 0.137695 0.620791 -0.295713 -0.368446 0.881363
0.18457 0.137695 0.623566 -0.156985 -0.832924 0.530654
0.214998 0.131836 0.666992 0.559092 -0.653155 -0.51069
0.219727 0.136962 0.666992 0.558581 -0.487072 -0.671378
0.0712813 0.149414 0.614258 -0.781585 -0.605572 -0.149688
0.0673828 0.15439 0.614258 -0.711963 -0.69973 -0.0590394
0.0791016 0.1371 0.625977 -0.631862 -0.70444 -0.323287
0.0863671 0.131836 0.625977 -0.526264 -0.805279 -0.273077
0.0849609 0.132747 0.625977 -0.575088 -0.76541 -0.288828
0.0849609 0.131836 0.627765 -0.539887 -0.786395 -0.300175
0.137695 0.136121 0.625977 0.421837 0.0107325 -0.906608
0.173618 0.131836 0.625977 0.935224 0.234856 -0.264949
0.217384 0.125977 0.678711 0.493376 -0.56559 -0.660824
0.219727 0.127461 0.678711 0.493153 -0.578 -0.650166
0.219727 0.125977 0.680041 0.480636 -0.515431 -0.70945
0.225586 0.125977 0.683077 0.330297 -0.434869 -0.837731
0.231445 0.125977 0.684161 0.809443 -0.548564 0.209474
0.0849609 0.13063 0.631836 -0.507618 -0.812502 -0.286645
0.0919582 0.125977 0.631836 -0.583064 -0.758009 -0.292334
0.0908203 0.126834 0.631836 -0.521791 -0.802974 -0.288039
0.0908203 0.125977 0.636467 -0.536011 -0.803261 -0.259737
0.178138 0.125977 0.631836 -0.231368 0.967599 0.101098
0.178711 0.125977 0.631895 -0.369596 0.928801 0.0269605
0.18457 0.125977 0.636041 0.598161 0.153877 -0.786464
0.101017 0.120117 0.631836 -0.502303 -0.794401 -0.341496
0.0966797 0.123374 0.631836 -0.38242 -0.863952 -0.327632
0.177711 0.120117 0.631836 0.655497 -0.366092 -0.66053
0.178711 0.120117 0.633313 0.710162 -0.416136 -0.567892
0.196289 0.14008 0.655273 -0.268711 0.64362 -0.716622
0.20868 0.137695 0.655273 0.563105 0.193689 -0.803366
0.208008 0.138731 0.655273 0.495244 0.296169 -0.816711
0.213867 0.137695 0.660421 0.555828 -0.259892 -0.789627
0.220533 0.120117 0.68457 0.633258 -0.711501 -0.30455
0.225586 0.125254 0.68457 0.277149 -0.699968 -0.658204
0.19189 0.143555 0.655273 0.44498 0.800325 -0.401836
0.201534 0.143555 0.655273 -0.129652 0.830035 -0.542432
0.196289 0.143555 0.658678 -0.261879 0.920056 -0.291403
0.204386 0.143555 0.655273 0.143631 0.628613 -0.76434
0.202148 0.144314 0.655273 -0.122059 0.791435 -0.598943
0.208008 0.143555 0.657435 0.417814 0.578996 -0.700139
0.213867 0.143555 0.660071 0.232519 0.569557 -0.788378
0.0747646 0.143555 0.620117 -0.675449 -0.709093 -0.202374
0.0732422 0.145544 0.620117 -0.737879 -0.626624 -0.250752
0.0732422 0.143555 0.623528 -0.645125 -0.707906 -0.287546
0.218979 0.131836 0.672852 0.485241 -0.740745 -0.464583
0.219727 0.132447 0.672852 0.490759 -0.729462 -0.476488
0.219727 0.131836 0.673829 0.480368 -0.742634 -0.466628
0.225586 0.136227 0.672852 0.522584 -0.629273 -0.575258
0.208008 0.149414 0.661387 0.333829 0.876578 -0.346653
0.213867 0.149414 0.66537 -0.0134013 0.881523 -0.471951
0.219727 0.149414 0.665875 0.0574938 0.829388 -0.555707
0.069649 0.149414 0.620117 -0.660136 -0.687067 -0.303576
0.0673828 0.151905 0.620117 -0.782863 -0.540457 -0.308273
0.0673828 0.149414 0.623567 -0.706942 -0.635129 -0.311196
0.0784127 0.137695 0.625977 -0.680023 -0.656028 -0.327409
0.0732422 0.14251 0.625977 -0.599589 -0.732602 -0.32216
0.134496 0.137695 0.625977 0.0958099 -0.447315 -0.88923
0.137695 0.137695 0.628293 0.858899 -0.412326 -0.303775
0.0835185 0.131836 0.631836 -0.592089 -0.753669 -0.285332
0.0791016 0.135552 0.631836 -0.567773 -0.777236 -0.271178
0.174677 0.131836 0.631836 0.330766 -0.899713 -0.2848
0.214518 0.137695 0.661133 0.549151 -0.300673 -0.779762
0.219727 0.137695 0.666016 0.576085 -0.42694 -0.697029
0.222305 0.120117 0.69043 0.563554 -0.524708 -0.638035
0.225586 0.123356 0.69043 0.228272 -0.889632 -0.395534
0.225586 0.120117 0.693294 0.680482 -0.691122 -0.243506
0.231445 0.125188 0.69043 0.754997 -0.628472 -0.18709
0.0908203 0.12576 0.637695 -0.532676 -0.808435 -0.250377
0.0993158 0.120117 0.637695 -0.459536 -0.862378 -0.21244
0.0966797 0.12176 0.637695 -0.464703 -0.850702 -0.245676
0.0966797 0.120117 0.642878 -0.438798 -0.867208 -0.235386
0.181628 0.120117 0.637695 0.773095 -0.558291 -0.301057
0.18457 0.124748 0.637695 0.661106 -0.188784 -0.726154
0.0905313 0.125977 0.637695 -0.518765 -0.81658 -0.25314
0.0849609 0.12919 0.637695 -0.526205 -0.809954 -0.259004
0.178711 0.127079 0.637695 -0.487719 0.428681 -0.760502
0.185625 0.125977 0.637695 0.636724 0.0196969 -0.77084
0.18457 0.128228 0.637695 0.428658 0.247007 -0.869045
0.0722108 0.143555 0.625977 -0.664551 -0.672635 -0.325475
0.0673828 0.148223 0.625977 -0.662016 -0.671041 -0.333825
0.196289 0.145235 0.661133 -0.0256182 0.912704 -0.407817
0.202148 0.146847 0.661133 -0.772181 0.619613 0.140771
0.208008 0.149108 0.661133 0.340102 0.868798 -0.35989
0.216066 0.143555 0.661133 0.302719 0.455588 -0.837138
0.213867 0.144708 0.661133 0.1478 0.689524 -0.709022
0.219727 0.143555 0.663012 0.468148 0.269164 -0.841658
0.224344 0.131836 0.678711 0.401217 -0.715027 -0.572504
0.225586 0.132635 0.678711 0.402222 -0.689709 -0.602096
0.225586 0.131836 0.679766 0.368259 -0.699278 -0.612695
0.231445 0.135357 0.678711 0.506462 -0.472306 -0.721404
0.231445 0.131836 0.682095 0.502057 -0.706879 -0.498258
0.206551 0.149414 0.666992 -0.095338 0.953869 -0.284683
0.208008 0.151595 0.666992 0.184613 0.909058 -0.373539
0.213867 0.150166 0.666992 -0.0418509 0.862074 -0.505052
0.223009 0.149414 0.666992 0.032492 0.771127 -0.635852
0.219727 0.149997 0.666992 0.040498 0.802326 -0.595511
0.225586 0.149414 0.667923 0.027258 0.645473 -0.763297
0.231445 0.149414 0.670905 0.367084 0.286429 -0.88499
0.0767205 0.137695 0.631836 -0.724509 -0.619577 -0.302012
0.0732422 0.141178 0.631836 -0.566032 -0.761 -0.316995
0.178711 0.137695 0.633906 0.823734 0.317993 -0.469406
0.0663372 0.149414 0.625977 -0.740513 -0.586356 -0.328371
0.0615234 0.15519 0.625977 -0.684982 -0.640745 -0.346765
0.0821068 0.131836 0.637695 -0.601889 -0.751841 -0.269194
0.0791016 0.134344 0.637695 -0.60831 -0.751201 -0.256234
0.173921 0.131836 0.637695 0.102361 -0.89329 -0.43767
0.178711 0.135208 0.637695 0.984314 -0.0231921 -0.174896
0.18457 0.131836 0.639385 0.172426 0.56467 -0.807104
0.23305 0.125977 0.696289 0.411166 -0.881855 -0.230811
0.237305 0.130038 0.696289 0.471203 -0.785799 -0.400608
0.221021 0.137695 0.666992 0.564936 -0.427385 -0.705826
0.225586 0.137695 0.670587 0.498759 -0.534566 -0.68226
0.22712 0.120117 0.696289 0.560318 -0.813861 -0.15386
0.231445 0.124423 0.696289 0.769266 -0.600525 -0.218172
0.0704801 0.143555 0.631836 -0.70335 -0.635546 -0.318404
0.0673828 0.146502 0.631836 -0.656006 -0.690063 -0.305729
0.0961699 0.120117 0.643555 -0.450368 -0.859323 -0.242348
0.0908203 0.123694 0.643555 -0.544621 -0.801912 -0.24561
0.18382 0.120117 0.643555 0.634011 -0.697494 -0.333965
0.18457 0.12156 0.643555 0.601501 -0.697456 -0.389553
0.18457 0.120117 0.64566 0.596352 -0.716611 -0.361709
0.0875891 0.125977 0.643555 -0.471881 -0.844642 -0.2528
0.0849609 0.127318 0.643555 -0.582004 -0.788822 -0.197565
0.0849609 0.125977 0.646883 -0.596356 -0.754501 -0.274022
0.178711 0.131755 0.643555 0.607469 -0.382198 0.696352
0.202148 0.146194 0.666992 -0.847238 0.498575 -0.183329
0.22513 0.143555 0.666992 0.481867 0.0174628 -0.87607
0.225586 0.143555 0.667388 0.481761 0.0108199 -0.876236
0.231445 0.143555 0.670886 0.562579 -0.11655 -0.818487
0.233225 0.131836 0.68457 0.43821 -0.65281 -0.617909
0.237305 0.134975 0.68457 0.761714 -0.475244 -0.440381
0.237305 0.131836 0.687847 0.745024 -0.255136 -0.616315
0.0646796 0.149414 0.631836 -0.74253 -0.589028 -0.318896
0.0615234 0.153103 0.631836 -0.691622 -0.646297 -0.322427
0.199303 0.149414 0.672852 0.0847665 0.393047 -0.915603
0.205187 0.149414 0.672852 -0.178753 0.934382 -0.308183
0.202148 0.149414 0.675134 0.0077965 0.969036 -0.246798
0.208008 0.152977 0.672852 -0.099195 0.638395 -0.763291
0.213867 0.153134 0.672852 -0.152135 0.749654 -0.644107
0.219727 0.153539 0.672852 -0.0527067 0.816002 -0.57564
0.225586 0.153236 0.672852 -0.108516 0.755931 -0.645595
0.235849 0.149414 0.672852 0.203321 0.305889 -0.930104
0.231445 0.153886 0.672852 0.0778799 0.680965 -0.728163
0.237305 0.149414 0.673721 0.0562024 0.338651 -0.939232
0.0751926 0.137695 0.637695 -0.669433 -0.698075 -0.254068
0.0732422 0.139551 0.637695 -0.622764 -0.736096 -0.265195
0.183214 0.137695 0.637695 0.912611 0.404878 -0.0567051
0.0801083 0.131836 0.643555 -0.630827 -0.765734 -0.125337
0.0791016 0.132683 0.643555 -0.67505 -0.729211 -0.112068
0.0791016 0.131836 0.646099 -0.669221 -0.718271 -0.19034
0.17896 0.131836 0.643555 0.678248 -0.294003 0.673455
0.178711 0.131878 0.643555 0.619559 -0.361144 0.696937
0.178711 0.131836 0.643887 0.559097 -0.269537 0.784067
0.18457 0.136486 0.643555 0.24817 0.715928 -0.652578
0.228704 0.137695 0.672852 0.606287 -0.584162 -0.539602
0.231445 0.140295 0.672852 0.584352 -0.496701 -0.641733
0.231445 0.137695 0.675636 0.562703 -0.650335 -0.510324
0.234378 0.125977 0.702148 0.318062 -0.928043 -0.193835
0.237305 0.128809 0.702148 0.292792 -0.91478 -0.278298
0.227987 0.120117 0.702148 0.489854 -0.863317 -0.12135
0.231445 0.123513 0.702148 0.778016 -0.598582 -0.190765
0.0685749 0.143555 0.637695 -0.691577 -0.673069 -0.262106
0.0673828 0.144779 0.637695 -0.700329 -0.664193 -0.261509
0.0673828 0.143555 0.641317 -0.695411 -0.677989 -0.23819
0.202148 0.147065 0.672852 -0.404504 0.535234 -0.741553
0.234424 0.143555 0.672852 0.286239 -0.24882 -0.925287
0.237305 0.143555 0.675328 -0.0682539 -0.301966 -0.950872
0.0827882 0.125977 0.649414 -0.628582 -0.68755 -0.363537
0.0791016 0.129411 0.649414 -0.604398 -0.719736 -0.341589
0.0849609 0.124651 0.649414 -0.535862 -0.773694 -0.338008
0.0917232 0.120117 0.649414 -0.48543 -0.825609 -0.287622
0.0908203 0.120732 0.649414 -0.48303 -0.818254 -0.311677
0.0908203 0.120117 0.650751 -0.454321 -0.836996 -0.305009
0.186299 0.120117 0.649414 0.597239 -0.746573 -0.293144
0.208008 0.15512 0.678711 -0.922572 -0.299312 -0.243463
0.0628661 0.149414 0.637695 -0.69835 -0.655105 -0.288349
0.0615234 0.150931 0.637695 -0.7135 -0.632006 -0.302466
0.0615234 0.149414 0.640844 -0.69565 -0.663864 -0.274512
0.0673828 0.142494 0.643555 -0.683675 -0.690159 -0.237211
0.0732549 0.137695 0.643555 -0.593723 -0.785256 -0.175688
0.0732422 0.137707 0.643555 -0.593886 -0.785025 -0.176171
0.0732422 0.137695 0.643584 -0.593036 -0.785606 -0.176438
0.184333 0.137695 0.643555 0.414985 0.600723 -0.683315
0.178711 0.137695 0.649207 -0.538437 -0.822929 -0.18131
0.18457 0.137695 0.646249 -0.00279529 0.392095 -0.919921
0.0759901 0.131836 0.649414 -0.670251 -0.653616 -0.351498
0.0732422 0.133646 0.649414 -0.48436 -0.80617 -0.339831
0.178711 0.136326 0.649414 -0.678179 -0.575916 0.456502
0.232949 0.137695 0.678711 0.372923 -0.603914 -0.704427
0.237305 0.141555 0.678711 0.0685471 -0.535255 -0.841904
0.237305 0.137695 0.682048 0.475296 -0.795894 -0.375029
0.228694 0.120117 0.708008 0.465528 -0.874566 -0.135712
0.231445 0.122753 0.708008 0.81168 -0.582047 -0.04896
0.235795 0.125977 0.708008 0.357668 -0.933093 -0.0375779
0.237305 0.127493 0.708008 0.24927 -0.962385 -0.108073
0.0661682 0.143555 0.643555 -0.662538 -0.703616 -0.256843
0.0615234 0.147709 0.643555 -0.706244 -0.656906 -0.263998
0.18457 0.143555 0.648319 0.261661 0.433609 -0.862274
0.196289 0.143555 0.684343 -0.545654 0.747566 0.378691
0.0890929 0.120117 0.655273 -0.532174 -0.802812 -0.268856
0.0849609 0.123174 0.655273 -0.440263 -0.851946 -0.283473
0.188747 0.120117 0.655273 0.500994 -0.811991 -0.299459
0.0799084 0.125977 0.655273 -0.632758 -0.712157 -0.304056
0.0791016 0.126745 0.655273 -0.606143 -0.730766 -0.313962
0.0791016 0.125977 0.660511 -0.605993 -0.749344 -0.266939
0.0601717 0.149414 0.643555 -0.716302 -0.650993 -0.251235
0.208008 0.153575 0.68457 -0.797671 0.249449 -0.549086
0.0692933 0.137695 0.649414 -0.628605 -0.72292 -0.286781
0.0673828 0.139382 0.649414 -0.645029 -0.713538 -0.273498
0.0673828 0.137695 0.654279 -0.673667 -0.698844 -0.240396
0.178513 0.137695 0.649414 -0.477333 -0.84785 -0.230878
0.181199 0.137695 0.649414 -0.373868 -0.907001 -0.193837
0.18457 0.137695 0.65089 -0.891693 -0.420274 0.168091
0.196289 0.143233 0.68457 -0.683545 0.673686 0.280915
0.239514 0.137695 0.68457 0.314752 -0.867761 -0.384607
0.243164 0.140392 0.68457 0.862826 -0.453749 -0.222805
0.0631742 0.143555 0.649414 -0.670312 -0.696648 -0.255661
0.0615234 0.145177 0.649414 -0.689081 -0.678692 -0.254056
0.187975 0.143555 0.649414 0.958926 0.197556 -0.20355
0.229522 0.120117 0.713867 0.546903 -0.837188 -0.00363976
0.231445 0.12182 0.713867 0.800559 -0.599189 0.00881523
0.235767 0.125977 0.713867 0.287928 -0.956818 -0.0399611
0.237305 0.127602 0.713867 0.158981 -0.98721 -0.0118574
0.243164 0.129318 0.713867 -0.119513 -0.990365 -0.0699548
0.0673828 0.137461 0.655273 -0.682748 -0.69466 -0.226498
0.0736104 0.131836 0.655273 -0.617577 -0.718309 -0.320359
0.0732422 0.132123 0.655273 -0.590204 -0.744366 -0.312377
0.0732422 0.131836 0.658252 -0.638048 -0.718086 -0.277932
0.18457 0.136647 0.655273 -0.905985 0.0897647 0.413682
0.0791016 0.125932 0.661133 -0.60394 -0.751947 -0.264259
0.089323 0.120117 0.661133 -0.559148 -0.81813 -0.134225
0.0849609 0.123723 0.661133 -0.415678 -0.878425 -0.235755
0.197279 0.143555 0.68457 -0.562569 0.811614 -0.157479
0.196289 0.144166 0.68457 -0.542011 0.738806 0.400488
0.0790156 0.125977 0.661133 -0.605555 -0.750467 -0.264769
0.0732422 0.131537 0.661133 -0.652677 -0.707174 -0.27188
0.0584332 0.149414 0.649414 -0.754719 -0.60312 -0.258158
0.0556641 0.152358 0.649414 -0.778162 -0.608515 -0.155478
0.203706 0.149414 0.69043 -0.827259 -0.150657 -0.541244
0.0670733 0.137695 0.655273 -0.681547 -0.697223 -0.222202
0.186133 0.137695 0.655273 -0.987045 0.0907849 0.132291
0.18457 0.139467 0.655273 -0.837984 -0.042312 0.544052
0.0620996 0.143555 0.655273 -0.687806 -0.696979 -0.20284
0.0615234 0.144127 0.655273 -0.690057 -0.694587 -0.203398
0.0615234 0.143555 0.659553 -0.695741 -0.696302 -0.176372
0.243032 0.137695 0.69043 0.750817 -0.632949 -0.188809
0.243164 0.137782 0.69043 0.774197 -0.606555 -0.180859
0.243164 0.137695 0.690734 0.770415 -0.602721 -0.207818
0.229567 0.120117 0.719727 0.648722 -0.740053 0.177427
0.231445 0.121447 0.719727 0.801929 -0.562612 0.200945
0.249023 0.131836 0.724182 0.126067 -0.961363 0.244721
0.235843 0.125977 0.719727 0.268676 -0.932583 0.241043
0.237305 0.127335 0.719727 0.138201 -0.936118 0.323395
0.243164 0.128524 0.719727 0.199501 -0.75333 0.626652
0.0728755 0.131836 0.661133 -0.636666 -0.722597 -0.269277
0.0673828 0.136432 0.661133 -0.727883 -0.658106 -0.192571
0.0791016 0.124878 0.666992 -0.54754 -0.8287 -0.115998
0.089718 0.120117 0.666992 -0.523065 -0.851486 0.0370706
0.0849609 0.123641 0.666992 -0.403975 -0.907412 -0.115793
0.0908203 0.120117 0.67045 -0.547187 -0.835779 -0.0453717
0.202148 0.148593 0.69043 -0.871075 0.256753 -0.418695
0.0771661 0.125977 0.666992 -0.637544 -0.760547 -0.122906
0.0732422 0.129551 0.666992 -0.654015 -0.738339 -0.164684
0.0659509 0.137695 0.661133 -0.691305 -0.699293 -0.181898
0.0615234 0.143182 0.661133 -0.707412 -0.684366 -0.176667
0.0568078 0.149414 0.655273 -0.794964 -0.561046 -0.230781
0.0556641 0.151067 0.655273 -0.808184 -0.548752 -0.213799
0.0556641 0.149414 0.659107 -0.823399 -0.532852 -0.195146
0.202978 0.149414 0.696289 -0.642404 -0.262515 0.720002
0.208008 0.149414 0.699954 -0.742653 0.608557 0.279507
0.213867 0.153614 0.696289 -0.977628 0.187887 -0.0945559
0.0612198 0.143555 0.661133 -0.695666 -0.696863 -0.174444
0.0556641 0.14854 0.661133 -0.807357 -0.559326 -0.18796
0.229814 0.120117 0.725586 0.866723 -0.480192 0.134932
0.231445 0.122321 0.725586 0.881731 -0.441059 0.167385
0.233927 0.125977 0.725586 0.602875 -0.652624 0.458937
0.237305 0.128807 0.725586 0.221518 -0.576116 0.786778
0.243164 0.129946 0.725586 0.289562 -0.615776 0.732785
0.237305 0.131836 0.729235 0.561666 -0.703588 0.435311
0.246366 0.131836 0.725586 0.0384789 -0.821378 0.569085
0.243164 0.131836 0.727643 0.090039 -0.779437 0.619977
0.249023 0.133227 0.725586 -0.0172998 -0.797295 0.603341
0.0791016 0.123945 0.672852 -0.499161 -0.862413 -0.0841508
0.0849609 0.123516 0.672852 -0.42156 -0.893594 -0.154197
0.0918132 0.120117 0.672852 -0.544593 -0.83354 -0.0928938
0.0908203 0.120848 0.672852 -0.51762 -0.850327 -0.0949351
0.070848 0.131836 0.666992 -0.670976 -0.722098 -0.168422
0.0673828 0.135369 0.666992 -0.70518 -0.690046 -0.162965
0.202148 0.149212 0.696289 -0.679428 -0.152604 0.717697
0.0642757 0.137695 0.666992 -0.646597 -0.72166 -0.247223
0.0615234 0.140534 0.666992 -0.710451 -0.64382 -0.284176
0.0763625 0.125977 0.672852 -0.648125 -0.754273 -0.104916
0.0732422 0.128601 0.672852 -0.576281 -0.800231 -0.165923
0.0548184 0.149414 0.661133 -0.835558 -0.515953 -0.188773
0.208581 0.149414 0.702148 -0.600029 0.565862 0.565477
0.213867 0.155206 0.702148 -0.929118 -0.298573 0.218162
0.0585084 0.143555 0.666992 -0.726041 -0.652951 -0.215683
0.0556641 0.146005 0.666992 -0.642694 -0.731932 -0.226317
0.229249 0.120117 0.731445 0.748485 -0.0744545 0.658959
0.231445 0.123271 0.731445 0.647404 -0.0741391 0.758533
0.232559 0.125977 0.731445 0.531383 -0.155839 0.832674
0.231445 0.125977 0.732486 0.422491 -0.0145563 0.90625
0.208008 0.148789 0.702148 -0.658449 0.533752 0.530616
0.0791016 0.123604 0.678711 -0.432692 -0.894935 0.108944
0.0849609 0.123078 0.678711 -0.540229 -0.840796 0.0348419
0.0923707 0.120117 0.678711 -0.513999 -0.855403 -0.0639545
0.0908203 0.121265 0.678711 -0.471061 -0.878095 -0.0839625
0.0688269 0.131836 0.672852 -0.734916 -0.668794 -0.112312
0.0673828 0.13333 0.672852 -0.676891 -0.72862 -0.104557
0.235487 0.131836 0.731445 0.37735 -0.741133 0.555273
0.231445 0.131836 0.733984 -0.0416181 -0.79286 0.607981
0.237305 0.133029 0.731445 0.634845 -0.496535 0.591967
0.0628661 0.137695 0.672852 -0.63823 -0.751682 -0.166244
0.0615234 0.138935 0.672852 -0.686047 -0.704763 -0.180687
0.0763516 0.125977 0.678711 -0.567574 -0.821539 -0.0541587
0.0732422 0.128276 0.678711 -0.575236 -0.812473 -0.0948177
0.0534732 0.149414 0.666992 -0.839943 -0.436479 -0.322461
0.0498047 0.153907 0.666992 -0.76854 -0.594577 -0.236272
0.0575666 0.143555 0.672852 -0.772686 -0.616597 -0.150878
0.0556641 0.145321 0.672852 -0.552298 -0.814915 -0.175726
0.226048 0.120117 0.737305 0.980326 -0.197376 0.00170986
0.208008 0.149318 0.708008 -0.0417203 0.0236819 0.998849
0.0791016 0.124085 0.68457 -0.330659 -0.93921 -0.0924665
0.0849609 0.122867 0.68457 -0.605773 -0.795637 0.000471868
0.0921247 0.120117 0.68457 -0.420978 -0.906265 0.038221
0.0908203 0.120999 0.68457 -0.439234 -0.89836 0.00476207
0.229514 0.125977 0.737305 0.626659 0.375651 -0.682777
0.068876 0.131836 0.678711 -0.698004 -0.69973 -0.152215
0.0673828 0.133401 0.678711 -0.613315 -0.763963 -0.200513
0.249023 0.137133 0.737305 -0.139017 -0.304197 0.942411
0.243164 0.137695 0.730944 0.213291 -0.722907 0.657201
0.249023 0.137695 0.731346 -0.584534 -0.584534 0.562708
0.0626577 0.137695 0.678711 -0.664982 -0.730538 -0.155286
0.0615234 0.138679 0.678711 -0.695334 -0.705864 -0.135152
0.0770453 0.125977 0.68457 -0.521928 -0.848269 -0.0896209
0.0732422 0.128637 0.68457 -0.604394 -0.796544 0.0150086
0.0527956 0.149414 0.672852 -0.858114 -0.410841 -0.307977
0.0498047 0.153591 0.672852 -0.795779 -0.549634 -0.25424
0.0582876 0.143555 0.678711 -0.838672 -0.512089 -0.185456
0.0556641 0.145936 0.678711 -0.631659 -0.775247 -0.000299014
0.229472 0.120117 0.743164 0.518703 0.27228 -0.810439
0.231445 0.120117 0.745342 0.602518 0.413492 -0.682639
0.237305 0.120117 0.747824 0.197799 0.498526 -0.844007
0.231445 0.125977 0.746594 0.742043 0.0607658 -0.667593
0.0689871 0.131836 0.68457 -0.681053 -0.732189 -0.00809463
0.0673828 0.133213 0.68457 -0.695535 -0.716371 0.0551627
0.0791016 0.123149 0.69043 -0.221043 -0.975193 -0.0117836
0.0849609 0.122364 0.69043 -0.401896 -0.883962 0.238939
0.0916823 0.120117 0.69043 -0.455481 -0.887154 0.0741227
0.0908203 0.120529 0.69043 -0.521067 -0.845666 0.115493
0.0908203 0.120117 0.695095 -0.621206 -0.782919 0.0337826
0.231445 0.131836 0.747978 0.777187 0.437433 -0.452363
0.24283 0.137695 0.731445 0.100824 -0.735382 0.67011
0.243164 0.138036 0.731445 0.195765 -0.680153 0.706447
0.249023 0.137695 0.732444 -0.405449 -0.405449 0.819282
0.0621514 0.137695 0.68457 -0.666701 -0.736484 0.11446
0.0615234 0.138332 0.68457 -0.686872 -0.719745 0.100865
0.0615234 0.137695 0.688897 -0.663261 -0.745787 -0.0623418
0.0764501 0.125977 0.69043 -0.573767 -0.814524 -0.0856837
0.0732422 0.12883 0.69043 -0.66793 -0.742776 -0.0463979
0.0517926 0.149414 0.678711 -0.800417 -0.599363 -0.00981104
0.0498047 0.152454 0.678711 -0.870776 -0.488462 -0.056167
0.0574954 0.143555 0.68457 -0.765569 -0.641922 -0.0429064
0.0556641 0.145956 0.68457 -0.78266 -0.618137 -0.0731403
0.239113 0.120117 0.749023 0.282168 0.300263 -0.911166
0.237305 0.121155 0.749023 0.109997 0.42224 -0.899786
0.243164 0.120117 0.751541 0.543791 0.0673383 -0.836515
0.248418 0.137695 0.737305 -0.184425 -0.213366 0.959407
0.249023 0.137695 0.737892 -0.286743 -0.384946 0.877265
0.233577 0.125977 0.749023 0.599188 0.132346 -0.789594
0.237305 0.125977 0.752937 0.37759 0.573386 -0.727086
0.243164 0.125977 0.752807 0.0628979 0.681768 -0.72886
0.0615234 0.137301 0.69043 -0.66519 -0.734802 -0.132624
0.0679653 0.131836 0.69043 -0.69941 -0.712737 -0.0532235
0.0673828 0.132545 0.69043 -0.731035 -0.678764 -0.0697617
0.0673828 0.131836 0.693513 -0.668478 -0.740558 -0.0686345
0.232952 0.131836 0.749023 0.607861 0.546797 -0.575776
0.237305 0.131836 0.754555 0.436311 0.21748 -0.873118
0.0791016 0.122763 0.696289 -0.304154 -0.921701 -0.240744
0.0899668 0.120117 0.696289 -0.613659 -0.789568 -0.00217679
0.0849609 0.121351 0.696289 -0.0359695 -0.980869 -0.191318
0.0849609 0.120117 0.699702 0.124515 -0.978333 -0.165412
0.0673828 0.131586 0.696289 -0.563196 -0.824532 -0.0543759
0.0759152 0.125977 0.696289 -0.644396 -0.764314 -0.0240495
0.0732422 0.128538 0.696289 -0.717891 -0.694142 0.0529039
0.0515977 0.149414 0.68457 -0.684563 -0.727503 -0.0459597
0.0498047 0.152426 0.68457 -0.884535 -0.44474 -0.140728
0.0612986 0.137695 0.69043 -0.70206 -0.702004 -0.119588
0.0567427 0.143555 0.69043 -0.687552 -0.722232 -0.0751922
0.0556641 0.144968 0.69043 -0.801096 -0.590991 -0.0947305
0.0556641 0.143555 0.694151 -0.733341 -0.679332 0.0268063
0.247902 0.120117 0.754883 0.523827 -0.000951339 -0.851824
0.249023 0.120117 0.755779 0.518606 0.00634124 -0.85499
0.254883 0.120117 0.759176 0.463489 0.121922 -0.877675
0.24777 0.125977 0.754883 0.392479 0.325481 -0.860245
0.243164 0.127962 0.754883 -0.193245 0.54372 -0.816716
0.249023 0.125977 0.755605 0.446126 0.278489 -0.850539
0.254883 0.125977 0.759339 0.465062 0.0465121 -0.884055
0.0670654 0.131836 0.696289 -0.593415 -0.801733 -0.071291
0.0615234 0.136549 0.696289 -0.637917 -0.751146 -0.169827
0.237642 0.131836 0.754883 0.437842 0.17275 -0.882299
0.237305 0.13223 0.754883 0.399725 0.207438 -0.892855
0.243164 0.131836 0.760283 0.469298 0.393059 -0.790736
0.249023 0.131836 0.758218 0.212717 0.513111 -0.831546
0.254883 0.131836 0.760383 0.269865 0.270454 -0.924136
0.0825984 0.120117 0.702148 -0.0568331 -0.9737 -0.220633
0.0791016 0.121515 0.702148 -0.522533 -0.844064 -0.120475
0.0791016 0.120117 0.706128 -0.629984 -0.762665 -0.1465
0.0521049 0.149414 0.69043 -0.688069 -0.719606 0.0934279
0.0498047 0.151839 0.69043 -0.782862 -0.61851 0.0676176
0.0673828 0.131779 0.702148 -0.500592 -0.858761 0.109257
0.0746431 0.125977 0.702148 -0.722108 -0.691769 0.00392479
0.0732422 0.127746 0.702148 -0.750385 -0.660911 -0.010865
0.0732422 0.125977 0.707788 -0.738851 -0.673767 0.0117335
0.0604733 0.137695 0.696289 -0.818016 -0.551797 -0.162386
0.0556641 0.143178 0.696289 -0.754507 -0.650277 0.0886569
0.258564 0.120117 0.760742 0.607333 0.253878 -0.75279
0.260742 0.120117 0.761663 0.631988 0.348671 -0.692113
0.266602 0.120117 0.765683 0.286912 0.546655 -0.78667
0.237305 0.137695 0.758256 0.213538 0.655749 -0.724151
0.243164 0.137695 0.758486 0.348095 0.348788 -0.870159
0.0553613 0.143555 0.696289 -0.769847 -0.630738 0.0974966
0.0556641 0.143555 0.69735 -0.776242 -0.627559 0.0601407
0.259698 0.149414 0.766602 0.435274 0.00413126 -0.900289
0.254883 0.149414 0.767919 -0.360863 0.314097 -0.878135
0.243164 0.143555 0.762265 -0.0355259 0.708369 -0.704947
0.249023 0.143555 0.761718 0.472747 0.518658 -0.712394
0.254883 0.143555 0.764385 0.312863 0.0553022 -0.948187
0.257052 0.125977 0.760742 0.608875 -0.0208061 -0.792993
0.260742 0.125977 0.763306 0.686496 -0.185767 -0.703004
0.0673221 0.131836 0.702148 -0.50144 -0.858383 0.108338
0.0615234 0.136718 0.702148 -0.704298 -0.683179 0.192952
0.0673828 0.131836 0.702293 -0.499782 -0.86006 0.102539
0.249023 0.135897 0.760742 -0.247343 0.192256 -0.949663
0.255936 0.131836 0.760742 0.330763 0.227128 -0.915974
0.254883 0.132756 0.760742 0.235517 0.318386 -0.918238
0.260742 0.131836 0.762808 0.722202 0.150739 -0.675057
0.0530326 0.149414 0.696289 -0.817829 -0.575348 -0.0114335
0.0498047 0.152446 0.696289 -0.682788 -0.723701 0.10029
0.0787619 0.120117 0.708008 -0.726075 -0.681424 -0.0920687
0.0732422 0.125947 0.708008 -0.736834 -0.675921 0.0143873
0.0791016 0.120117 0.713389 -0.759249 -0.646263 -0.0767142
0.0732175 0.125977 0.708008 -0.739584 -0.672916 0.0140911
0.0732422 0.125977 0.708222 -0.737048 -0.675666 0.0153525
0.0605724 0.137695 0.702148 -0.695662 -0.696247 0.176902
0.0615234 0.137695 0.703963 -0.697104 -0.712822 0.0770203
0.24725 0.137695 0.760742 0.278092 -0.49391 -0.823843
0.243164 0.140982 0.760742 -0.0715419 0.191802 -0.978823
0.254883 0.137695 0.762874 0.409421 0.489637 -0.769825
0.260742 0.137695 0.763717 0.580842 0.537601 -0.611235
0.269294 0.120117 0.766602 0.232491 0.580964 -0.780018
0.266602 0.121369 0.766602 0.316338 0.482468 -0.816796
0.272461 0.120117 0.767664 0.158852 0.515014 -0.842334
0.27832 0.120117 0.769728 0.149235 0.390811 -0.908293
0.28418 0.120117 0.770096 -0.0340742 -0.196818 -0.979848
0.298115 0.120117 0.766602 -0.202181 -0.0576513 -0.97765
0.295898 0.120117 0.767774 -0.469233 -0.12299 -0.874468
0.0574311 0.143555 0.702148 -0.856802 -0.500861 -0.122592
0.0556641 0.145813 0.702148 -0.769217 -0.637117 -0.0488633
0.0706569 0.131836 0.708008 -0.530231 -0.839382 -0.119556
0.0673828 0.134081 0.708008 -0.41502 -0.894516 -0.166132
0.257249 0.143555 0.766602 0.319659 -0.210565 -0.92384
0.254883 0.146814 0.766602 -0.10524 0.146675 -0.98357
0.260742 0.148799 0.766602 0.655248 -0.0187755 -0.75518
0.260742 0.143555 0.769022 0.525092 -0.0426454 -0.849976
0.266602 0.143555 0.77091 0.716838 0.0762728 -0.693055
0.263507 0.125977 0.766602 0.692646 -0.14471 -0.706612
0.266602 0.125977 0.769549 0.363061 0.0568577 -0.930029
0.272461 0.125977 0.772075 0.384547 0.359642 -0.850165
0.27832 0.125977 0.772458 0.116725 0.695742 -0.708744
0.28418 0.125977 0.77212 -0.369545 0.649573 -0.664449
0.290039 0.125977 0.768384 -0.371521 0.616812 -0.693913
0.295898 0.125977 0.769472 -0.192359 0.800552 -0.567551
0.249023 0.136997 0.766602 -0.183912 -0.142453 -0.972565
0.265614 0.131836 0.766602 0.640023 -0.187211 -0.7452
0.266602 0.131836 0.767665 0.598245 -0.169522 -0.783176
0.272461 0.131836 0.772366 0.806819 0.206402 -0.553572
0.0532118 0.149414 0.702148 -0.821809 -0.566687 -0.0591252
0.0498047 0.153443 0.702148 -0.78688 -0.607167 0.110305
0.0746377 0.125977 0.713867 -0.772775 -0.633556 -0.037753
0.0732422 0.127446 0.713867 -0.711932 -0.702246 0.00203557
0.0791607 0.120117 0.713867 -0.751164 -0.655657 -0.0765897
0.0791016 0.120191 0.713867 -0.752455 -0.653994 -0.0781191
0.289191 0.120117 0.772461 -0.180143 -0.584543 -0.791112
0.290792 0.120117 0.772461 -0.236697 -0.600011 -0.764174
0.290039 0.120674 0.772461 -0.223424 -0.486773 -0.844472
0.290039 0.120117 0.772819 -0.19998 -0.603298 -0.772036
0.0638725 0.137695 0.708008 -0.851233 -0.486638 -0.196433
0.0615234 0.139979 0.708008 -0.605741 -0.792677 -0.0688612
0.248415 0.137695 0.766602 0.00718507 -0.34357 -0.939099
0.250236 0.137695 0.766602 0.0460874 -0.0533375 -0.997512
0.249023 0.138631 0.766602 0.0935153 -0.115003 -0.988954
0.249023 0.137695 0.767322 -0.0580777 -0.24608 -0.967508
0.263359 0.137695 0.766602 0.281696 0.254291 -0.925194
0.260742 0.140427 0.766602 0.296222 0.117561 -0.947856
0.266602 0.137695 0.769263 0.657764 0.0259404 -0.752777
0.0570326 0.143555 0.708008 -0.872966 -0.487407 -0.0191117
0.0556641 0.14562 0.708008 -0.829504 -0.558265 -0.016236
0.27832 0.125979 0.772461 0.116981 0.69552 -0.70892
0.28418 0.126217 0.772461 -0.398574 0.615243 -0.680158
0.290039 0.128434 0.772461 -0.197272 0.410352 -0.890334
0.0710108 0.131836 0.713867 -0.503467 -0.859639 -0.0868442
0.0673828 0.134325 0.713867 -0.465644 -0.884538 0.0277213
0.0531838 0.149414 0.708008 -0.770924 -0.636416 -0.0255043
0.272694 0.131836 0.772461 0.823825 0.243843 -0.511717
0.272461 0.132404 0.772461 0.871405 0.191647 -0.45158
0.27832 0.131836 0.776615 0.020779 0.589057 -0.807824
0.290039 0.131836 0.774761 0.000696059 0.795242 -0.606292
0.0760163 0.125977 0.719727 -0.89238 -0.444326 -0.0789424
0.0732422 0.129183 0.719727 -0.693491 -0.712089 0.109542
0.0807272 0.120117 0.719727 -0.573074 -0.779112 0.254109
0.0791016 0.121806 0.719727 -0.567271 -0.815113 0.117449
0.0639483 0.137695 0.713867 -0.833086 -0.552556 -0.0254931
0.0615234 0.14049 0.713867 -0.737899 -0.674843 0.00964265
0.28418 0.130439 0.77832 -0.382443 0.713528 -0.587039
0.0572946 0.143555 0.713867 -0.77333 -0.633708 0.0193568
0.0556641 0.146209 0.713867 -0.848022 -0.523755 -0.0808666
0.270296 0.137695 0.772461 0.703922 0.286994 -0.649714
0.272461 0.137695 0.773875 0.89847 -0.130155 -0.419298
0.0711886 0.131836 0.719727 -0.525338 -0.839745 0.137289
0.0673828 0.134963 0.719727 -0.608064 -0.765025 0.212121
0.0532649 0.149414 0.713867 -0.805702 -0.58953 0.0574369
0.281585 0.131836 0.77832 -0.0123933 0.86941 -0.493936
0.27832 0.133135 0.77832 0.328431 0.530162 -0.781704
0.285811 0.131836 0.77832 -0.313515 0.902278 -0.295977
0.28418 0.131836 0.779383 -0.285451 0.891131 -0.352708
0.0765283 0.125977 0.725586 -0.698491 -0.592571 0.40121
0.0732422 0.130836 0.725586 -0.726221 -0.613957 0.309289
0.290039 0.143555 0.795046 0.818164 0.0113227 -0.574874
0.082783 0.120117 0.725586 -0.672906 -0.685591 0.277783
0.0791016 0.122945 0.725586 -0.460062 -0.707623 0.536295
0.0644522 0.137695 0.719727 -0.695122 -0.696087 0.179632
0.0615234 0.141347 0.719727 -0.806911 -0.573759 0.140338
0.0577435 0.143555 0.719727 -0.617691 -0.759621 0.203551
0.0556641 0.146106 0.719727 -0.75849 -0.651444 0.0177003
0.275136 0.137695 0.77832 0.650454 0.133752 -0.747677
0.27832 0.137695 0.780746 0.763664 0.573077 -0.297321
0.0721762 0.131836 0.725586 -0.625254 -0.681184 0.380849
0.0673828 0.135995 0.725586 -0.620795 -0.648807 0.440072
0.0732422 0.131836 0.728821 -0.826214 -0.511875 0.235276
0.0541717 0.149414 0.719727 -0.917994 -0.396025 0.0212649
0.28418 0.135799 0.78418 0.0223489 0.871383 -0.490095
0.291495 0.143555 0.795898 0.675271 -0.365997 -0.640356
0.0787371 0.125977 0.731445 -0.585469 -0.797025 0.148243
0.0791016 0.125977 0.732301 -0.604832 -0.788275 0.113139
0.082985 0.120117 0.731445 -0.831869 -0.553264 -0.0435093
0.0791016 0.125479 0.731445 -0.63047 -0.762416 0.145705
0.0658313 0.137695 0.725586 -0.585605 -0.687382 0.429619
0.0615234 0.143317 0.725586 -0.672412 -0.69783 0.246769
0.0673828 0.137695 0.728776 -0.593283 -0.656767 0.465481
0.0612947 0.143555 0.725586 -0.654169 -0.719903 0.231954
0.0556641 0.14744 0.725586 -0.729127 -0.644303 0.230752
0.0615234 0.143555 0.726133 -0.645365 -0.726621 0.235641
0.074093 0.131836 0.731445 -0.924635 -0.362942 0.115426
0.0732422 0.132984 0.731445 -0.919575 -0.332733 0.208977
0.282675 0.137695 0.78418 0.317683 0.665772 -0.675148
0.28418 0.137695 0.786905 0.403721 0.57792 -0.709238
0.0537361 0.149414 0.725586 -0.854254 -0.498559 0.147273
0.0556641 0.149414 0.73113 -0.709353 -0.700653 0.0768375
0.0810912 0.125977 0.737305 -0.714035 -0.699884 -0.0177979
0.0791016 0.127762 0.737305 -0.421338 -0.897782 -0.128304
0.295044 0.143555 0.801758 0.426432 0.283789 -0.858848
0.295898 0.147282 0.801758 0.137322 0.571066 -0.809337
0.295898 0.143555 0.802398 0.583157 0.260303 -0.769526
0.0833602 0.120117 0.737305 -0.805629 -0.592328 0.0105109
0.0692344 0.137695 0.731445 -0.435814 -0.363849 0.823213
0.0673828 0.139351 0.731445 -0.387704 -0.43328 0.813606
0.0737541 0.131836 0.737305 -0.969241 -0.198926 -0.144912
0.0732422 0.13442 0.737305 -0.981482 -0.0967351 -0.165336
0.290039 0.138692 0.790039 -0.254308 0.880264 -0.400578
0.0635681 0.143555 0.731445 -0.261564 -0.854795 0.448231
0.0615234 0.145117 0.731445 -0.517193 -0.766377 0.381021
0.0673828 0.143555 0.736444 0.621819 -0.77557 -0.108771
0.0732422 0.143555 0.736981 -0.103183 0.696909 -0.709698
0.0558162 0.149414 0.731445 -0.691209 -0.718103 0.0809744
0.0556641 0.149591 0.731445 -0.710884 -0.699477 0.0733209
0.0815405 0.125977 0.743164 -0.780474 -0.62265 -0.0562787
0.0791016 0.127802 0.743164 -0.566133 -0.80666 0.169686
0.0833391 0.120117 0.743164 -0.833464 -0.54189 -0.108134
0.0720698 0.137695 0.737305 -0.546117 -0.0440339 -0.836551
0.0732422 0.140777 0.737305 -0.120705 0.267483 -0.955972
0.295898 0.142128 0.795898 -0.562512 0.751229 -0.345305
0.0732875 0.131836 0.743164 -0.901826 -0.406656 0.146082
0.0732422 0.131939 0.743164 -0.898594 -0.41631 0.13862
0.0615234 0.145318 0.737305 -0.187082 -0.981659 -0.0366839
0.0673828 0.144116 0.737305 0.755074 -0.529621 -0.386478
0.0732422 0.143555 0.737768 -0.0908667 0.732383 -0.674803
0.0564753 0.149414 0.737305 -0.684841 -0.728361 -0.0219565
0.0556641 0.150111 0.737305 -0.75182 -0.658777 0.0279308
0.0819238 0.125977 0.749023 -0.761095 -0.63324 0.140506
0.0791016 0.129029 0.749023 -0.735982 -0.668544 0.106674
0.196289 0.149414 0.87295 0.582064 0.582064 -0.567806
0.0828942 0.120117 0.749023 -0.821881 -0.48186 0.303846
0.0849609 0.120117 0.754121 -0.845016 -0.532774 0.0458294
0.0689325 0.137695 0.743164 -0.716901 -0.675756 -0.171482
0.295898 0.143106 0.801758 0.516261 0.349461 -0.78189
0.0741647 0.131836 0.749023 -0.766017 -0.618221 0.176126
0.0732422 0.133119 0.749023 -0.744293 -0.654677 0.132008
0.0615234 0.144931 0.743164 -0.321126 -0.944977 0.0624263
0.0675102 0.143555 0.743164 -0.519431 -0.327037 -0.789455
0.0673828 0.143686 0.743164 -0.503416 -0.355797 -0.787389
0.0673828 0.143555 0.743705 -0.659826 -0.450742 -0.601216
0.056627 0.149414 0.743164 -0.716143 -0.686824 0.124148
0.0556641 0.150598 0.743164 -0.78915 -0.607304 0.0917828
0.0825733 0.125977 0.754883 -0.776195 -0.584018 0.237579
0.0791016 0.129525 0.754883 -0.757015 -0.552535 0.34876
0.0853285 0.120117 0.754883 -0.830156 -0.557344 0.0144309
0.0849609 0.1207 0.754883 -0.865806 -0.499824 0.0235664
0.0682738 0.137695 0.749023 -0.688775 -0.581396 0.433091
0.0673828 0.139106 0.749023 -0.740141 -0.473521 0.477461
0.0743679 0.131836 0.754883 -0.623817 -0.596311 0.505238
0.0732422 0.132925 0.754883 -0.599004 -0.566712 0.565714
0.0732422 0.131836 0.756624 -0.480317 -0.75207 0.451316
0.0791016 0.131836 0.75996 -0.822545 -0.568517 0.0144365
0.0652016 0.143555 0.749023 -0.449864 -0.311093 0.837164
0.0615234 0.14584 0.749023 -0.305473 -0.534719 0.787884
0.0732422 0.130682 0.760742 0.448748 -0.836517 -0.314427
0.0832906 0.125977 0.760742 -0.857834 -0.511762 0.0471328
0.0573854 0.149414 0.749023 -0.429249 -0.681485 0.592726
0.0556641 0.151215 0.749023 -0.664421 -0.500646 0.554887
0.0732422 0.149414 0.753679 -0.975332 0.0990968 -0.197247
0.0853882 0.120117 0.760742 -0.874813 -0.472834 0.1055
0.0849609 0.121283 0.760742 -0.901449 -0.412234 0.132108
0.0849609 0.120117 0.764045 -0.942106 -0.335108 -0.0117907
0.0689539 0.137695 0.754883 -0.703101 -0.498952 0.506651
0.0673828 0.139227 0.754883 0.101405 -0.659616 0.744731
