ply
format ascii 1.0
comment VCGLIB generated
element vertex 801
property float x
property float y
property float z
property float nx
property float ny
property float nz
element face 0
property list uchar int vertex_indices
end_header
0.0305412 -0.108398 0.725586 -0.952973 -0.219622 -0.208825 
-0.147361 -0.114258 0.731445 0.986884 -0.0736564 -0.14365 
0.034381 -0.120117 0.725586 -0.857476 -0.51152 -0.0555116 
-0.147964 -0.0966797 0.719727 0.999223 -0.0384404 -0.00868298 
0.0399605 -0.125977 0.725586 -0.802772 -0.580328 -0.137027 
0.0380859 -0.123796 0.725586 -0.783084 -0.613545 -0.101691 
0.0380859 -0.125977 0.729955 -0.792294 -0.582577 -0.181314 
-0.147178 -0.102539 0.725586 0.999648 -0.00099703 -0.0265017 
0.0291665 -0.0966797 0.725586 -0.985745 -0.139825 -0.093574 
-0.148029 -0.120117 0.731445 0.98713 -0.118833 -0.107022 
0.0284221 -0.102539 0.731445 -0.990419 -0.123206 -0.062374 
-0.14716 -0.108398 0.731445 0.993835 -0.0204675 -0.108967 
-0.148677 -0.125977 0.731445 0.996266 -0.0693437 -0.0514372 
0.0299491 -0.108398 0.731445 -0.972479 -0.20412 -0.112334 
0.0307128 -0.114258 0.731445 -0.933638 -0.321743 -0.157483 
-0.146155 -0.114258 0.737305 0.991943 -0.0500515 -0.116375 
0.0340507 -0.120117 0.731445 -0.854442 -0.488821 -0.176018 
0.0322266 -0.116826 0.731445 -0.919207 -0.360173 -0.159165 
-0.14713 -0.0966797 0.725586 0.999482 -0.0191263 -0.0258873 
0.0373852 -0.125977 0.731445 -0.792294 -0.582577 -0.181314 
-0.146968 -0.102539 0.731445 0.998163 0.00115763 -0.0605701 
0.0281715 -0.0966797 0.731445 -0.995798 -0.0892243 -0.0206424 
0.0286511 -0.102539 0.737305 -0.991972 -0.119031 0.0427043 
-0.147175 -0.120117 0.737305 0.984416 -0.149196 -0.0930903 
-0.146477 -0.108398 0.737305 0.995091 0.0113235 -0.09831 
-0.148355 -0.125977 0.737305 0.987207 -0.15651 -0.030437 
0.029573 -0.108398 0.737305 -0.973234 -0.218603 0.0709094 
0.0306088 -0.114258 0.737305 -0.965303 -0.246804 0.0853089 
0.0325972 -0.120117 0.737305 -0.912564 -0.407678 0.0320398 
0.0322266 -0.119126 0.737305 -0.912564 -0.407678 0.0320398 
-0.145889 -0.114258 0.743164 0.993533 -0.0934872 -0.0644408 
0.0366359 -0.125977 0.737305 -0.782053 -0.622106 -0.0371135 
-0.14706 -0.0966797 0.731445 0.999592 -0.000312708 -0.0285624 
0.0283737 -0.0966797 0.737305 -0.998115 -0.0494362 0.0363566 
-0.14641 -0.102539 0.737305 0.996836 0.0257411 -0.075198 
0.0287206 -0.102539 0.743164 -0.952052 -0.125094 0.279192 
-0.145952 -0.108398 0.743164 0.99503 0.0264475 -0.0960012 
-0.146597 -0.120117 0.743164 0.977197 -0.211169 -0.0221993 
-0.147691 -0.125977 0.743164 0.972597 -0.232291 -0.00984069 
0.0305089 -0.108398 0.743164 -0.934012 -0.197428 0.297733 
0.0322266 -0.108398 0.747202 -0.894104 -0.172056 0.41349 
0.0318524 -0.114258 0.743164 -0.940812 -0.243637 0.235612 
0.0322266 -0.114258 0.744109 -0.928547 -0.221632 0.297793 
0.0335625 -0.120117 0.743164 -0.880108 -0.398804 0.257614 
0.0322266 -0.115559 0.743164 -0.928849 -0.283168 0.238864 
0.0369819 -0.125977 0.743164 -0.813717 -0.57416 0.0905827 
-0.145557 -0.114258 0.749023 0.994666 -0.102362 -0.0126846 
-0.146776 -0.0966797 0.737305 0.998369 0.0342527 -0.0456683 
0.0288178 -0.0966797 0.743164 -0.961488 -0.230729 0.149345 
-0.14618 -0.102539 0.743164 0.98724 0.0202515 -0.157948 
0.032225 -0.102539 0.749023 -0.940791 -0.194648 0.277533 
0.0322266 -0.102539 0.749074 -0.940791 -0.194648 0.277533 
-0.14459 -0.108398 0.749023 0.994282 -0.038382 -0.0996518 
-0.146535 -0.120117 0.749023 0.971766 -0.226842 0.0649124 
0.0328311 -0.108398 0.749023 -0.959864 -0.137704 0.244333 
0.0322266 -0.102554 0.749023 -0.940791 -0.194648 0.277533 
-0.148293 -0.125977 0.749023 0.953912 -0.281375 0.104304 
0.035612 -0.120117 0.749023 -0.900086 -0.302394 0.313692 
0.033772 -0.114258 0.749023 -0.941684 -0.206514 0.265674 
0.0375247 -0.125977 0.749023 -0.814994 -0.506178 0.282078 
0.0380859 -0.125977 0.750153 -0.814994 -0.506179 0.282078 
-0.14582 -0.114258 0.754883 0.966078 -0.258249 -0.000842752 
0.0303515 -0.0966797 0.749023 -0.907647 -0.395584 0.140325 
-0.146406 -0.0966797 0.743164 0.988048 0.0535101 -0.144559 
-0.145517 -0.102539 0.749023 0.986258 -0.0184227 -0.164181 
0.032445 -0.102539 0.754883 -0.925044 -0.364533 0.106818 
0.0322266 -0.102033 0.754883 -0.908811 -0.407148 0.0910634 
-0.144856 -0.108398 0.754883 0.984298 -0.0670925 -0.163268 
-0.143555 -0.108398 0.759585 0.971415 -0.19292 -0.138325 
-0.147319 -0.120117 0.754883 0.962899 -0.26002 0.0722167 
0.0342699 -0.108398 0.754883 -0.952625 -0.215401 0.214729 
-0.149053 -0.125977 0.754883 0.957462 -0.275952 0.0843573 
0.0377584 -0.120117 0.754883 -0.871302 -0.35471 0.339138 
0.0380859 -0.120117 0.75618 -0.871367 -0.340872 0.352882 
0.0404979 -0.125977 0.754883 -0.811131 -0.43463 0.391362 
0.0380859 -0.120781 0.754883 -0.871195 -0.374081 0.317933 
0.0348558 -0.114258 0.754883 -0.894436 -0.284561 0.344978 
0.0380859 -0.114258 0.760527 -0.893583 -0.229842 0.385594 
-0.14596 -0.114258 0.760742 0.93367 -0.345789 0.0932234 
-0.143555 -0.109089 0.760742 0.969811 -0.236082 -0.0610961 
0.0286269 -0.0966797 0.754883 -0.915159 -0.355149 0.190663 
-0.145479 -0.0966797 0.749023 0.969345 -0.0106075 -0.245476 
-0.143555 -0.0966797 0.752608 0.954361 -0.0324576 -0.296886 
-0.144967 -0.102539 0.754883 0.977417 -0.110157 -0.180335 
-0.143555 -0.0994163 0.754883 0.958149 -0.112594 -0.263199 
-0.143555 -0.102539 0.757782 0.95448 -0.146196 -0.25999 
-0.147775 -0.120117 0.760742 0.956627 -0.226115 0.183675 
-0.143323 -0.108398 0.760742 0.980375 -0.196864 -0.0104409 
-0.143555 -0.108398 0.762588 0.97985 -0.174324 0.0974905 
0.0332426 -0.102539 0.760742 -0.796274 -0.428711 0.426795 
0.0322266 -0.0997006 0.760742 -0.779699 -0.47266 0.410685 
0.0380859 -0.102539 0.766291 -0.771488 -0.329115 0.544508 
0.0365666 -0.108398 0.760742 -0.831068 -0.280796 0.480083 
0.0380859 -0.108398 0.762553 -0.890562 -0.195157 0.410869 
-0.149283 -0.125977 0.760742 0.892706 -0.418669 0.166714 
-0.149414 -0.125977 0.761753 0.892706 -0.418669 0.166714 
0.0433601 -0.125977 0.760742 -0.836834 -0.458887 0.29855 
0.0439453 -0.125977 0.761951 -0.857229 -0.407841 0.314364 
0.0381967 -0.114258 0.760742 -0.893583 -0.229842 0.385594 
0.0380859 -0.11367 0.760742 -0.882496 -0.201077 0.42517 
0.0391917 -0.120117 0.760742 -0.863089 -0.368763 0.345095 
-0.148132 -0.114258 0.766602 0.875011 -0.259461 0.4087 
-0.149414 -0.114258 0.768568 0.809575 -0.24807 0.532023 
-0.142525 -0.0966797 0.754883 0.980171 -0.0392817 -0.194223 
-0.143555 -0.0919648 0.754883 0.936764 0.334679 -0.102291 
0.0307801 -0.0966797 0.760742 -0.896749 -0.159574 0.412768 
0.0322266 -0.0966797 0.761953 -0.896749 -0.159574 0.412768 
-0.142384 -0.102539 0.760742 0.995867 -0.0703487 -0.0574373 
-0.143555 -0.102539 0.765695 0.986018 -0.0760736 0.148263 
0.0400651 -0.108398 0.766602 -0.872001 -0.208487 0.442885 
-0.144521 -0.108398 0.766602 0.85026 -0.314355 0.422185 
0.0382476 -0.102539 0.766602 -0.771488 -0.329115 0.544508 
0.0380859 -0.102168 0.766602 -0.761777 -0.311195 0.568202 
-0.149048 -0.120117 0.766602 0.932258 -0.188509 0.308804 
-0.149414 -0.120117 0.767288 0.922112 -0.161077 0.351801 
-0.150244 -0.125977 0.766602 0.820388 -0.482777 0.306415 
-0.149414 -0.122155 0.766602 0.921373 -0.238169 0.307161 
0.0446784 -0.125977 0.766602 -0.904684 -0.340803 0.255733 
0.0439453 -0.122773 0.766602 -0.848552 -0.423129 0.317682 
0.0404873 -0.114258 0.766602 -0.870953 -0.146123 0.469137 
0.0439453 -0.114258 0.771422 -0.891585 -0.174172 0.418019 
0.0417186 -0.120117 0.766602 -0.842253 -0.356591 0.404293 
0.0439453 -0.120117 0.769362 -0.867101 -0.208251 0.452513 
0.0424526 -0.108398 0.772461 -0.892103 -0.241124 0.382115 
0.0439453 -0.108398 0.774891 -0.934331 -0.196582 0.297291 
-0.151267 -0.114258 0.772461 0.861379 -0.197719 0.467903 
-0.149414 -0.108411 0.772461 0.797454 -0.16575 0.580167 
-0.143905 -0.102539 0.766602 0.849666 -0.140147 0.508357 
0.0352088 -0.0966797 0.766602 -0.70874 -0.0902728 0.69967 
0.0380859 -0.0966797 0.769489 -0.825629 -0.0679664 0.560104 
0.0416329 -0.102539 0.772461 -0.882216 -0.193014 0.429465 
-0.14941 -0.108398 0.772461 0.797454 -0.16575 0.580167 
-0.149414 -0.108398 0.772465 0.797454 -0.16575 0.580167 
-0.141981 -0.0966797 0.760742 0.999145 0.0261069 0.0320479 
-0.143555 -0.0939852 0.760742 0.716619 0.654638 0.240638 
-0.143555 -0.0966797 0.766262 0.765189 0.409232 0.497006 
-0.153016 -0.125977 0.772461 0.858933 -0.418407 0.295245 
-0.155273 -0.125977 0.778183 0.963284 -0.237268 0.125652 
-0.152205 -0.120117 0.772461 0.896135 -0.129647 0.424421 
0.0462737 -0.125977 0.772461 -0.984073 -0.139058 0.110742 
0.044526 -0.114258 0.772461 -0.900469 -0.19024 0.391105 
0.0439453 -0.112034 0.772461 -0.900078 -0.183294 0.395302 
0.0450823 -0.120117 0.772461 -0.922752 -0.168229 0.346739 
0.0451573 -0.108398 0.77832 -0.989128 -0.129157 0.0703217 
0.0439453 -0.103339 0.77832 -0.982539 -0.174761 0.0638482 
-0.154024 -0.114258 0.77832 0.950585 -0.153638 0.269784 
-0.148587 -0.102539 0.772461 0.768072 0.146204 0.62345 
-0.149414 -0.101384 0.772461 0.768072 0.146204 0.62345 
-0.149414 -0.102539 0.77319 0.768072 0.146204 0.62345 
0.0435717 -0.102539 0.77832 -0.982539 -0.174761 0.0638482 
0.0405639 -0.0966797 0.772461 -0.90575 -0.140189 0.399955 
-0.153453 -0.108398 0.77832 0.940007 -0.106024 0.324263 
-0.155313 -0.125977 0.77832 0.963284 -0.237268 0.125652 
-0.155273 -0.125592 0.77832 0.963284 -0.237268 0.125652 
-0.154464 -0.120117 0.77832 0.980072 -0.14474 0.136047 
-0.143728 -0.0966797 0.766602 0.765189 0.409232 0.497006 
-0.149414 -0.0927355 0.766602 0.57223 0.660637 0.485912 
-0.149414 -0.0966797 0.7698 0.568129 0.414472 0.710945 
0.0458435 -0.125977 0.77832 -0.975127 -0.0469847 -0.216612 
0.0439453 -0.125977 0.782673 -0.951983 -0.126519 -0.278786 
0.0455399 -0.114258 0.77832 -0.992742 -0.107907 -0.0530921 
0.0470307 -0.120117 0.77832 -0.977687 0.0282552 -0.208159 
0.0439453 -0.120117 0.781454 -0.917997 0.0536583 -0.392939 
-0.153966 -0.114258 0.78418 0.953162 -0.153654 -0.260525 
0.0441623 -0.108398 0.78418 -0.923023 -0.178401 -0.340884 
0.0439453 -0.107789 0.78418 -0.923023 -0.178401 -0.340884 
0.0439453 -0.108398 0.784399 -0.923023 -0.178401 -0.340884 
0.0417486 -0.102539 0.78418 -0.760195 -0.491139 -0.425307 
0.0380859 -0.099287 0.78418 -0.576845 -0.620443 -0.53132 
0.0380859 -0.102539 0.788027 -0.672807 -0.550026 -0.494774 
-0.15344 -0.108398 0.78418 0.93327 -0.117046 -0.339569 
0.0423222 -0.0966797 0.77832 -0.872473 -0.370736 -0.31835 
0.0380859 -0.0966797 0.781671 -0.462581 -0.457975 -0.75913 
-0.152994 -0.102539 0.77832 0.967669 -0.000564013 0.252222 
-0.155585 -0.125977 0.78418 0.998314 -0.0502134 -0.0291093 
-0.155273 -0.124344 0.78418 0.987224 -0.114108 -0.111208 
-0.155273 -0.125977 0.785293 0.98743 -0.0679667 -0.142699 
-0.154306 -0.120117 0.78418 0.983281 -0.141853 -0.114177 
0.0433294 -0.125977 0.78418 -0.950926 -0.140929 -0.275461 
-0.152445 -0.0966797 0.772461 0.890613 0.236656 0.388333 
0.0446695 -0.114258 0.78418 -0.939557 0.0773741 -0.333535 
0.0439453 -0.114258 0.78479 -0.939557 0.0773741 -0.333535 
0.0428822 -0.120117 0.78418 -0.931355 0.045283 -0.361287 
0.0439453 -0.115607 0.78418 -0.939557 0.0773741 -0.333535 
-0.151549 -0.114258 0.790039 0.870472 -0.236321 -0.431776 
-0.149414 -0.114258 0.793187 0.859571 -0.24393 -0.44904 
-0.152958 -0.102539 0.78418 0.916128 -0.130194 -0.379155 
-0.149414 -0.102539 0.787496 0.718739 -0.237792 -0.653353 
0.0405033 -0.108398 0.790039 -0.795448 -0.339977 -0.501675 
0.0380859 -0.104259 0.790039 -0.754794 -0.458902 -0.468716 
0.0380859 -0.108398 0.794175 -0.852525 -0.360789 -0.378198 
-0.149613 -0.108398 0.790039 0.795193 -0.30875 -0.521864 
-0.149414 -0.108134 0.790039 0.795193 -0.30875 -0.521863 
-0.149414 -0.108398 0.790292 0.795193 -0.30875 -0.521863 
0.0365361 -0.102539 0.790039 -0.732798 -0.501381 -0.460026 
-0.153158 -0.125977 0.790039 0.934995 -0.0833532 -0.344728 
0.042239 -0.125977 0.790039 -0.964576 -0.1367 -0.225623 
-0.152359 -0.120117 0.790039 0.918174 -0.175524 -0.355173 
0.0342276 -0.0966797 0.78418 -0.672273 -0.614112 -0.41342 
0.0322266 -0.0946158 0.78418 -0.663 -0.55744 -0.499692 
-0.153673 -0.0966797 0.77832 0.994917 -0.0191376 -0.0988626 
0.041311 -0.114258 0.790039 -0.901522 -0.144462 -0.407908 
0.0412524 -0.120117 0.790039 -0.958608 -0.0379398 -0.282192 
-0.147859 -0.114258 0.795898 0.876041 -0.272256 -0.398031 
-0.146204 -0.102539 0.790039 0.800901 -0.387874 -0.456193 
-0.151018 -0.125977 0.795898 0.947632 -0.157676 -0.277727 
-0.146325 -0.108398 0.795898 0.856656 -0.313975 -0.409342 
0.0365556 -0.108398 0.795898 -0.824632 -0.390668 -0.409097 
0.0410355 -0.125977 0.795898 -0.958844 -0.0974286 -0.266693 
0.0343896 -0.102539 0.795898 -0.879795 -0.372914 -0.294781 
0.0322266 -0.0967399 0.795898 -0.873931 -0.44479 -0.195974 
-0.150136 -0.120117 0.795898 0.906809 -0.252792 -0.337334 
-0.149414 -0.118422 0.795898 0.90085 -0.217339 -0.37581 
-0.149414 -0.120117 0.79767 0.921637 -0.241253 -0.303944 
0.0327587 -0.0966797 0.790039 -0.800583 -0.58612 -0.12462 
0.0322266 -0.0958644 0.790039 -0.813084 -0.571922 -0.108626 
0.0322266 -0.0966797 0.795683 -0.873931 -0.44479 -0.195974 
-0.151327 -0.0966797 0.78418 0.801456 -0.275632 -0.53075 
-0.149414 -0.0947251 0.78418 0.647097 -0.413224 -0.640712 
-0.149414 -0.0966797 0.785869 0.63724 -0.385633 -0.667243 
0.0393453 -0.114258 0.795898 -0.910266 -0.280142 -0.304855 
0.0380859 -0.111321 0.795898 -0.862393 -0.339301 -0.375704 
0.0380859 -0.114258 0.799668 -0.895307 -0.30603 -0.323683 
0.0402375 -0.120117 0.795898 -0.960546 -0.116344 -0.252616 
-0.146166 -0.114258 0.801758 0.896842 -0.249959 -0.364959 
-0.143555 -0.114258 0.807384 0.806123 -0.293189 -0.514009 
-0.143771 -0.102539 0.795898 0.903996 -0.334465 -0.266317 
-0.143555 -0.101715 0.795898 0.903996 -0.334465 -0.266317 
-0.143555 -0.102539 0.797164 0.888981 -0.365813 -0.275488 
-0.147855 -0.120117 0.801758 0.89739 -0.274743 -0.345265 
-0.149476 -0.125977 0.801758 0.939465 -0.170521 -0.297201 
-0.149414 -0.125774 0.801758 0.939465 -0.170521 -0.297201 
-0.149414 -0.125977 0.801954 0.939465 -0.170521 -0.297201 
0.0391085 -0.125977 0.801758 -0.950027 -0.0412782 -0.309427 
0.0380859 -0.125977 0.804289 -0.946758 -0.018378 -0.321422 
0.0343051 -0.108398 0.801758 -0.845031 -0.295611 -0.445574 
0.0322266 -0.108398 0.805601 -0.783571 -0.33803 -0.521299 
-0.144632 -0.108398 0.801758 0.88891 -0.296485 -0.349193 
-0.143555 -0.104951 0.801758 0.864881 -0.355787 -0.354113 
-0.143555 -0.108398 0.803816 0.834657 -0.2818 -0.473219 
0.0321971 -0.0966797 0.795898 -0.873931 -0.44479 -0.195974 
0.0330697 -0.102539 0.801758 -0.851547 -0.331323 -0.406315 
0.0322266 -0.100471 0.801758 -0.849527 -0.352786 -0.392231 
0.0322266 -0.102539 0.80301 -0.808028 -0.301626 -0.506076 
-0.143822 -0.0966797 0.790039 0.74053 -0.410953 -0.531727 
-0.143555 -0.0960586 0.790039 0.740524 -0.408159 -0.533882 
-0.143555 -0.0966797 0.790984 0.74053 -0.410953 -0.531727 
0.037172 -0.114258 0.801758 -0.859972 -0.366682 -0.354953 
0.0389353 -0.120117 0.801758 -0.961111 -0.125387 -0.246057 
0.0380859 -0.117108 0.801758 -0.904148 -0.295442 -0.308594 
0.0380859 -0.120117 0.805265 -0.916174 -0.156989 -0.368754 
-0.143354 -0.114258 0.807617 0.806123 -0.293189 -0.514009 
-0.145343 -0.120117 0.807617 0.823045 -0.262688 -0.503578 
-0.143555 -0.114647 0.807617 0.795479 -0.276523 -0.539211 
-0.143555 -0.120117 0.810246 0.753156 -0.259279 -0.604591 
0.0364999 -0.125977 0.807617 -0.913152 -0.0314221 -0.406406 
-0.142787 -0.102539 0.801758 0.864706 -0.373657 -0.335655 
-0.14746 -0.125977 0.807617 0.866755 -0.146214 -0.47682 
-0.143555 -0.125977 0.812507 0.79325 -0.281779 -0.539772 
0.0302496 -0.108398 0.807617 -0.755685 -0.406385 -0.513607 
0.0301542 -0.0966797 0.801758 -0.737156 -0.519535 -0.43207 
0.0263672 -0.0928853 0.801758 -0.738875 -0.522304 -0.425748 
0.0263672 -0.0966797 0.806286 -0.779701 -0.440306 -0.445194 
-0.141967 -0.0966797 0.795898 0.849085 -0.4032 -0.341298 
-0.141049 -0.108398 0.807617 0.800128 -0.302024 -0.518244 
-0.137695 -0.108398 0.812916 0.831078 -0.224172 -0.508975 
0.0282519 -0.102539 0.807617 -0.753078 -0.340706 -0.562843 
0.0263672 -0.0987941 0.807617 -0.757278 -0.42424 -0.496539 
0.0263672 -0.102539 0.810906 -0.83624 -0.30458 -0.455997 
0.0343095 -0.114258 0.807617 -0.775485 -0.403026 -0.485996 
0.0322266 -0.110682 0.807617 -0.75791 -0.409753 -0.507617 
0.0322266 -0.114258 0.810259 -0.706996 -0.416272 -0.571729 
0.0372673 -0.120117 0.807617 -0.856086 -0.182288 -0.48362 
-0.13882 -0.114258 0.813477 0.796336 -0.240918 -0.554803 
-0.137695 -0.110013 0.813477 0.829521 -0.220246 -0.513212 
-0.137695 -0.114258 0.815489 0.836045 -0.232171 -0.497117 
-0.140502 -0.120117 0.813477 0.792455 -0.262953 -0.550336 
-0.137695 -0.120117 0.818226 0.824674 -0.302875 -0.477681 
0.0335841 -0.125977 0.813477 -0.894589 -0.145259 -0.422624 
0.0322266 -0.125977 0.816768 -0.893423 -0.149853 -0.423484 
-0.142712 -0.125977 0.813477 0.804037 -0.304704 -0.510568 
-0.139533 -0.0966797 0.801758 0.775525 -0.490168 -0.397865 
-0.137695 -0.0945472 0.801758 0.761454 -0.516026 -0.392307 
-0.137695 -0.0966797 0.805101 0.80076 -0.447295 -0.398385 
-0.139105 -0.102539 0.807617 0.80696 -0.328183 -0.491031 
-0.137695 -0.0994205 0.807617 0.817354 -0.401083 -0.4136 
-0.137695 -0.102539 0.810602 0.846039 -0.264365 -0.462958 
0.025067 -0.0966797 0.807617 -0.78282 -0.396404 -0.479643 
0.0265712 -0.108398 0.813477 -0.832713 -0.333731 -0.441829 
0.0263672 -0.10777 0.813477 -0.828705 -0.321558 -0.458093 
0.0263672 -0.108398 0.814009 -0.832713 -0.333731 -0.441829 
-0.137232 -0.108398 0.813477 0.829521 -0.220246 -0.513212 
0.0292228 -0.114258 0.813477 -0.783715 -0.405048 -0.470878 
0.0263672 -0.114258 0.819279 -0.823457 -0.384973 -0.416792 
0.0244986 -0.102539 0.813477 -0.829922 -0.284232 -0.480042 
-0.135373 -0.114258 0.819336 0.827277 -0.23644 -0.509617 
-0.131836 -0.114258 0.824925 0.810065 -0.27071 -0.520106 
0.0327116 -0.120117 0.813477 -0.793097 -0.310873 -0.52379 
0.0322266 -0.119426 0.813477 -0.788731 -0.299814 -0.53667 
0.0322266 -0.120117 0.814405 -0.793097 -0.310873 -0.52379 
-0.137083 -0.120117 0.819336 0.827522 -0.310511 -0.467751 
0.0312656 -0.125977 0.819336 -0.865344 -0.157552 -0.47577 
-0.136335 -0.0966797 0.807617 0.843716 -0.36968 -0.389204 
0.0227958 -0.0966797 0.813477 -0.849596 -0.282289 -0.445534 
0.0205078 -0.0966797 0.817272 -0.817344 -0.294161 -0.495397 
-0.135696 -0.102539 0.813477 0.850634 -0.229284 -0.473128 
-0.139798 -0.125977 0.819336 0.82389 -0.347597 -0.44764 
-0.137695 -0.121406 0.819336 0.827522 -0.310511 -0.467751 
-0.137695 -0.125977 0.823071 0.815043 -0.33853 -0.470215 
0.0263344 -0.114258 0.819336 -0.823457 -0.384973 -0.416792 
-0.133757 -0.108398 0.819336 0.82899 -0.210231 -0.518245 
-0.131836 -0.108398 0.822262 0.816036 -0.221389 -0.533922 
0.0239505 -0.108398 0.819336 -0.812102 -0.36964 -0.451506 
0.0205078 -0.108398 0.82425 -0.725236 -0.396614 -0.562788 
0.0212418 -0.102539 0.819336 -0.803086 -0.315394 -0.505548 
0.0205078 -0.100436 0.819336 -0.790576 -0.318674 -0.522912 
0.0205078 -0.102539 0.820381 -0.803086 -0.315394 -0.505548 
-0.131674 -0.114258 0.825195 0.814442 -0.279572 -0.508452 
0.0296503 -0.120117 0.819336 -0.808964 -0.33051 -0.486149 
0.0263672 -0.114318 0.819336 -0.821658 -0.375235 -0.429042 
0.0263672 -0.120117 0.824201 -0.813233 -0.318926 -0.486764 
-0.133843 -0.120117 0.825195 0.821127 -0.318575 -0.473561 
-0.131836 -0.114728 0.825195 0.814442 -0.279572 -0.508452 
-0.131836 -0.120117 0.828505 0.80382 -0.334894 -0.491649 
-0.134293 -0.0966797 0.813477 0.873437 -0.282209 -0.39682 
-0.131836 -0.0966797 0.818499 0.847157 -0.268687 -0.458402 
0.0275246 -0.125977 0.825195 -0.828387 -0.114841 -0.548258 
0.0263672 -0.122417 0.825195 -0.795801 -0.255602 -0.54897 
0.0263672 -0.125977 0.826768 -0.821419 -0.121487 -0.557236 
0.0191731 -0.0966797 0.819336 -0.781332 -0.288482 -0.553442 
0.0235101 -0.114258 0.825195 -0.789471 -0.389408 -0.474444 
0.0205078 -0.109374 0.825195 -0.723768 -0.392964 -0.567221 
0.0205078 -0.114258 0.828692 -0.675614 -0.404573 -0.616333 
-0.136347 -0.125977 0.825195 0.816136 -0.330542 -0.473988 
-0.132375 -0.102539 0.819336 0.844606 -0.175368 -0.505853 
-0.131836 -0.0994062 0.819336 0.829549 -0.216719 -0.514666 
-0.131836 -0.102539 0.820114 0.836923 -0.165385 -0.521735 
-0.129854 -0.108398 0.825195 0.777158 -0.236962 -0.582988 
-0.125977 -0.108398 0.829934 0.764182 -0.273705 -0.584047 
0.0199122 -0.108398 0.825195 -0.718025 -0.398216 -0.570845 
-0.127958 -0.114258 0.831055 0.795619 -0.362455 -0.485403 
-0.125977 -0.110331 0.831055 0.778499 -0.304045 -0.549086 
-0.125977 -0.114258 0.834355 0.812146 -0.353216 -0.464389 
0.0172096 -0.102539 0.825195 -0.769733 -0.333668 -0.544221 
0.0146484 -0.102539 0.828482 -0.738539 -0.30939 -0.59903 
0.0256517 -0.120117 0.825195 -0.787948 -0.309328 -0.532404 
-0.130305 -0.120117 0.831055 0.810854 -0.347632 -0.470816 
-0.131411 -0.0966797 0.819336 0.832278 -0.269469 -0.484457 
-0.128398 -0.102539 0.825195 0.797074 -0.173707 -0.578359 
-0.125977 -0.102539 0.828407 0.774246 -0.171854 -0.609105 
-0.132978 -0.125977 0.831055 0.805708 -0.332071 -0.490472 
-0.131836 -0.123471 0.831055 0.809426 -0.342466 -0.477018 
-0.131836 -0.125977 0.832929 0.806565 -0.318036 -0.498304 
0.0147384 -0.0966797 0.825195 -0.761486 -0.269799 -0.589362 
0.0146484 -0.0963619 0.825195 -0.762637 -0.271491 -0.587092 
0.0146484 -0.0966797 0.825309 -0.761486 -0.269799 -0.589362 
0.0232899 -0.125977 0.831055 -0.790788 -0.209307 -0.575191 
0.0205078 -0.125977 0.834719 -0.797618 -0.209377 -0.565656 
-0.125095 -0.108398 0.831055 0.767008 -0.285085 -0.574826 
0.0183325 -0.114258 0.831055 -0.676503 -0.379898 -0.630889 
0.0146484 -0.114258 0.834716 -0.7042 -0.389262 -0.593783 
-0.124591 -0.114258 0.836914 0.777451 -0.397333 -0.487541 
0.0148796 -0.108398 0.831055 -0.719605 -0.338455 -0.606314 
0.0146484 -0.107809 0.831055 -0.720324 -0.339711 -0.604756 
0.0146484 -0.108398 0.831341 -0.719494 -0.337999 -0.6067 
0.0125998 -0.102539 0.831055 -0.725207 -0.307372 -0.616115 
0.00878906 -0.102539 0.835063 -0.685129 -0.324691 -0.652054 
0.0214839 -0.120117 0.831055 -0.754444 -0.306358 -0.580481 
0.0205078 -0.11842 0.831055 -0.723671 -0.329938 -0.606169 
0.0205078 -0.120117 0.832096 -0.728708 -0.325716 -0.602406 
-0.127022 -0.120117 0.836914 0.811521 -0.331126 -0.481445 
-0.125977 -0.117728 0.836914 0.810901 -0.334389 -0.480233 
-0.125977 -0.120117 0.838449 0.810181 -0.327058 -0.486457 
-0.127209 -0.0966797 0.825195 0.784905 -0.233491 -0.573939 
-0.125977 -0.0936825 0.825195 0.787145 -0.262955 -0.557904 
-0.125977 -0.0966797 0.826997 0.781847 -0.221773 -0.582694 
-0.129311 -0.125977 0.836914 0.81718 -0.292185 -0.496835 
-0.125977 -0.125977 0.84247 0.794601 -0.264906 -0.546292 
-0.123684 -0.102539 0.831055 0.774768 -0.160198 -0.611613 
-0.120117 -0.102539 0.835588 0.797782 -0.183635 -0.574302 
0.00994217 -0.0966797 0.831055 -0.746864 -0.272651 -0.606511 
0.00878906 -0.0934888 0.831055 -0.744464 -0.221253 -0.629936 
0.00878906 -0.0966797 0.83239 -0.714106 -0.269403 -0.646123 
0.019261 -0.125977 0.836914 -0.78757 -0.224341 -0.573938 
0.0146484 -0.125977 0.842748 -0.712498 -0.279184 -0.643742 
-0.121053 -0.108398 0.836914 0.787501 -0.357655 -0.501921 
-0.120117 -0.105667 0.836914 0.809096 -0.218692 -0.54547 
-0.120117 -0.108398 0.838149 0.776325 -0.37583 -0.506035 
0.0129023 -0.114258 0.836914 -0.741722 -0.405245 -0.534438 
-0.120938 -0.114258 0.842773 0.731193 -0.405512 -0.548559 
-0.120117 -0.112875 0.842773 0.71909 -0.418928 -0.554445 
-0.120117 -0.114258 0.843729 0.705322 -0.394638 -0.588881 
0.0102247 -0.108398 0.836914 -0.719249 -0.354541 -0.59748 
0.00878906 -0.105756 0.836914 -0.687675 -0.360692 -0.630084 
0.00878906 -0.108398 0.838437 -0.712531 -0.393994 -0.580576 
0.00689614 -0.102539 0.836914 -0.697155 -0.30365 -0.649439 
0.00292969 -0.102539 0.840988 -0.721394 -0.274576 -0.635766 
0.0165527 -0.120117 0.836914 -0.733182 -0.384207 -0.561096 
0.0146484 -0.117352 0.836914 -0.711017 -0.425548 -0.559789 
0.0146484 -0.120117 0.839412 -0.746471 -0.378105 -0.547556 
-0.12344 -0.120117 0.842773 0.78718 -0.331444 -0.520089 
-0.120117 -0.120117 0.847008 0.665941 -0.328488 -0.66979 
-0.125822 -0.125977 0.842773 0.794601 -0.264906 -0.546292 
-0.122698 -0.0966797 0.831055 0.774677 -0.20361 -0.598681 
-0.120117 -0.0966797 0.834205 0.768615 -0.204086 -0.606284 
-0.119152 -0.102539 0.836914 0.797174 -0.197307 -0.570599 
-0.117482 -0.108398 0.842773 0.782211 -0.377365 -0.495724 
-0.114258 -0.108398 0.846645 0.680001 -0.307433 -0.665646 
0.005 -0.0966797 0.836914 -0.742393 -0.235771 -0.627108 
0.00292969 -0.0966797 0.839631 -0.74901 -0.213972 -0.627056 
0.0146245 -0.125977 0.842773 -0.712498 -0.279184 -0.643742 
0.00878906 -0.125977 0.848626 -0.654198 -0.176437 -0.735456 
0.00892735 -0.114258 0.842773 -0.669805 -0.440362 -0.597865 
0.00878906 -0.114062 0.842773 -0.677545 -0.434469 -0.593439 
0.00878906 -0.114258 0.84292 -0.669805 -0.440362 -0.597865 
-0.115294 -0.114258 0.848633 0.655069 -0.335286 -0.677102 
-0.114258 -0.112198 0.848633 0.646915 -0.334108 -0.685473 
-0.114258 -0.114258 0.849685 0.569043 -0.315926 -0.759197 
-0.108398 -0.114258 0.853928 0.580242 -0.237 -0.779199 
-0.00292969 -0.114258 0.853785 -0.507262 -0.37516 -0.775848 
0.00479186 -0.108398 0.842773 -0.657533 -0.431217 -0.617821 
0.00292969 -0.105219 0.842773 -0.676248 -0.373306 -0.635084 
0.00292969 -0.108398 0.844645 -0.623076 -0.42459 -0.656886 
0.0124632 -0.120117 0.842773 -0.749176 -0.367945 -0.550774 
0.00878906 -0.120117 0.84703 -0.653857 -0.333049 -0.679374 
-0.118549 -0.120117 0.848633 0.667089 -0.323538 -0.671055 
-0.114258 -0.120117 0.851751 0.559283 -0.269443 -0.783966 
-0.120906 -0.125977 0.848633 0.729389 -0.217226 -0.648695 
-0.120117 -0.123985 0.848633 0.65366 -0.253899 -0.712926 
-0.120117 -0.125977 0.849385 0.602109 -0.22178 -0.766993 
-0.114258 -0.125977 0.853647 0.564759 -0.260206 -0.78316 
-0.118129 -0.0966797 0.836914 0.763709 -0.224904 -0.605117 
-0.114258 -0.0966797 0.84153 0.666779 -0.336066 -0.665181 
-0.1155 -0.102539 0.842773 0.777237 -0.259499 -0.573204 
-0.114258 -0.0992323 0.842773 0.728627 -0.273003 -0.62815 
-0.114258 -0.102539 0.844192 0.703863 -0.273943 -0.655387 
0.00129986 -0.102539 0.842773 -0.687452 -0.272093 -0.673331 
-0.00292969 -0.102539 0.847766 -0.659305 -0.254133 -0.707625 
-0.112182 -0.108398 0.848633 0.685377 -0.304857 -0.661303 
-0.108398 -0.108398 0.852021 0.612125 -0.245128 -0.751808 
-0.00878906 -0.108398 0.853616 -0.382232 -0.352551 -0.85417 
-0.00108349 -0.108398 0.848633 -0.660939 -0.388671 -0.641946 
-0.00292969 -0.104175 0.848633 -0.641148 -0.25865 -0.722516 
-0.00292969 -0.108398 0.850153 -0.554009 -0.348196 -0.756197 
0.00877964 -0.125977 0.848633 -0.654198 -0.176437 -0.735456 
0.00292969 -0.125977 0.85289 -0.583652 -0.22524 -0.780139 
-0.107572 -0.114258 0.854492 0.571785 -0.233382 -0.786508 
-0.102539 -0.114258 0.858173 0.550342 -0.182679 -0.81471 
-0.0146484 -0.114258 0.858222 -0.347575 -0.411247 -0.842655 
-0.00468719 -0.114258 0.854492 -0.438804 -0.364848 -0.82118 
-0.00878906 -0.110774 0.854492 -0.363702 -0.403702 -0.839491 
-0.00878906 -0.114258 0.856085 -0.347905 -0.392938 -0.851212 
0.00294709 -0.114258 0.848633 -0.623862 -0.40103 -0.670798 
0.00292969 -0.114234 0.848633 -0.623862 -0.40103 -0.670798 
0.00292969 -0.114258 0.848652 -0.623862 -0.40103 -0.670798 
0.0065583 -0.120117 0.848633 -0.564945 -0.278047 -0.77687 
0.00292969 -0.120117 0.85153 -0.581711 -0.28361 -0.76235 
-0.109792 -0.120117 0.854492 0.522533 -0.258189 -0.812587 
-0.108398 -0.11658 0.854492 0.544071 -0.227344 -0.807652 
-0.108398 -0.120117 0.855606 0.515599 -0.25743 -0.817244 
-0.102539 -0.120117 0.858987 0.512715 -0.227622 -0.827836 
-0.00878906 -0.120117 0.858904 -0.420263 -0.328728 -0.845764 
-0.00142539 -0.120117 0.854492 -0.53582 -0.249293 -0.806691 
-0.00292969 -0.11675 0.854492 -0.49608 -0.354909 -0.792429 
-0.00292969 -0.120117 0.855397 -0.494007 -0.280201 -0.82307 
-0.112821 -0.125977 0.854492 0.547439 -0.253924 -0.797391 
-0.108398 -0.125977 0.85804 0.526598 -0.260203 -0.809314 
0.00100803 -0.125977 0.854492 -0.564177 -0.221154 -0.795484 
-0.00292969 -0.125977 0.857715 -0.527792 -0.185388 -0.828895 
-0.113132 -0.0966797 0.842773 0.662069 -0.353073 -0.661063 
-0.108398 -0.0966797 0.847298 0.625282 -0.388926 -0.676579 
0.000475645 -0.0966797 0.842773 -0.745637 -0.194237 -0.637415 
-0.00292969 -0.0966797 0.846276 -0.66717 -0.214612 -0.713321 
-0.110184 -0.102539 0.848633 0.669288 -0.283693 -0.686711 
-0.108398 -0.0990875 0.848633 0.631073 -0.320295 -0.706512 
-0.108398 -0.102539 0.850219 0.604339 -0.280046 -0.745887 
-0.0146484 -0.102539 0.854328 -0.381414 -0.240843 -0.892478 
-0.00394988 -0.102539 0.848633 -0.637537 -0.261934 -0.724525 
-0.00878906 -0.102539 0.851728 -0.461353 -0.220338 -0.859421 
-0.105112 -0.108398 0.854492 0.573645 -0.245814 -0.781349 
-0.102539 -0.108398 0.856391 0.566336 -0.244996 -0.786918 
-0.0205078 -0.108398 0.858745 -0.359004 -0.304994 -0.882097 
-0.0117482 -0.108398 0.854492 -0.365251 -0.300959 -0.880918 
-0.0146484 -0.10339 0.854492 -0.379837 -0.240863 -0.893145 
-0.0146484 -0.108398 0.855789 -0.37467 -0.303786 -0.875977 
-0.0991287 -0.114258 0.860352 0.536602 -0.1617 -0.828198 
-0.0966797 -0.114258 0.861836 0.404595 -0.150978 -0.901947 
-0.0908203 -0.114258 0.863764 0.278891 -0.18023 -0.943259 
-0.0849609 -0.114258 0.865617 0.220121 -0.190021 -0.956786 
-0.0380859 -0.114258 0.865629 -0.168868 -0.3902 -0.905112 
-0.0322266 -0.114258 0.864748 -0.173533 -0.414712 -0.893253 
-0.0263672 -0.114258 0.863622 -0.28974 -0.378416 -0.87912 
-0.0192519 -0.114258 0.860352 -0.367631 -0.40053 -0.839299 
-0.0205078 -0.112903 0.860352 -0.369933 -0.395533 -0.840656 
-0.0205078 -0.114258 0.860889 -0.369933 -0.395533 -0.840656 
-0.100298 -0.120117 0.860352 0.495999 -0.211913 -0.842068 
-0.0966797 -0.120117 0.862521 0.448827 -0.192772 -0.872579 
-0.0908203 -0.120117 0.864828 0.257109 -0.273174 -0.926969 
-0.0849609 -0.120117 0.866111 0.22722 -0.223964 -0.94774 
-0.0263672 -0.120117 0.865871 -0.27262 -0.286033 -0.91862 
-0.0205078 -0.120117 0.863968 -0.331248 -0.341644 -0.879519 
-0.0122102 -0.120117 0.860352 -0.388494 -0.348758 -0.852901 
-0.0146484 -0.118017 0.860352 -0.354254 -0.428272 -0.831317 
-0.0146484 -0.120117 0.861567 -0.368039 -0.377882 -0.84956 
-0.104344 -0.125977 0.860352 0.501594 -0.280935 -0.818217 
-0.102539 -0.123772 0.860352 0.472872 -0.314569 -0.823066 
-0.102539 -0.125977 0.861192 0.48185 -0.292309 -0.82606 
-0.0966797 -0.125977 0.86461 0.419199 -0.325013 -0.847726 
-0.0205078 -0.125977 0.86548 -0.302885 -0.138531 -0.942905 
-0.0146484 -0.125977 0.863405 -0.366688 -0.225488 -0.902604 
-0.00807917 -0.125977 0.860352 -0.422173 -0.163227 -0.891699 
-0.00878906 -0.12495 0.860352 -0.409233 -0.171938 -0.896084 
-0.00878906 -0.125977 0.860774 -0.409233 -0.171938 -0.896084 
-0.107085 -0.0966797 0.848633 0.619875 -0.380499 -0.686277 
-0.102539 -0.0966797 0.852069 0.50082 -0.362051 -0.786193 
-0.0146484 -0.0966797 0.852884 -0.343484 -0.209249 -0.915551 
-0.00587702 -0.0966797 0.848633 -0.579217 -0.216835 -0.785806 
-0.00878906 -0.0966797 0.850571 -0.472941 -0.199651 -0.858176 
-0.102564 -0.102539 0.854492 0.514482 -0.312261 -0.798625 
-0.102539 -0.1025 0.854492 0.514482 -0.312261 -0.798625 
-0.102539 -0.102539 0.854508 0.514482 -0.312261 -0.798625 
-0.0966797 -0.102539 0.85809 0.426968 -0.376542 -0.82214 
-0.0322266 -0.102539 0.859887 -0.0965224 -0.213834 -0.97209 
-0.0263672 -0.102539 0.859225 -0.232447 -0.258701 -0.937573 
-0.0150099 -0.102539 0.854492 -0.381414 -0.240843 -0.892478 
-0.0205078 -0.102539 0.856994 -0.364974 -0.275641 -0.889278 
-0.0969782 -0.108398 0.860352 0.45158 -0.268973 -0.850723 
-0.0966797 -0.10803 0.860352 0.425676 -0.287501 -0.857988 
-0.0966797 -0.108398 0.860506 0.425676 -0.287501 -0.857988 
-0.0908203 -0.108398 0.86243 0.259089 -0.256274 -0.931234 
-0.0849609 -0.108398 0.863658 0.205999 -0.263568 -0.942389 
-0.0791016 -0.108398 0.865171 0.225119 -0.271202 -0.935826 
-0.0439453 -0.108398 0.864411 -0.269701 -0.376697 -0.886206 
-0.0380859 -0.108398 0.863006 -0.200651 -0.384102 -0.901224 
-0.0322266 -0.104546 0.860352 -0.136188 -0.319051 -0.937902 
-0.0322266 -0.108398 0.86157 -0.175534 -0.385311 -0.905938 
-0.025323 -0.108398 0.860352 -0.24096 -0.32686 -0.913839 
-0.0263672 -0.10692 0.860352 -0.214964 -0.357339 -0.9089 
-0.0263672 -0.108398 0.860732 -0.24096 -0.32686 -0.913839 
-0.0807455 -0.114258 0.866211 0.235189 -0.197473 -0.951678 
-0.0791016 -0.113347 0.866211 0.235164 -0.232636 -0.943705 
-0.0791016 -0.114258 0.866475 0.240633 -0.214419 -0.946637 
-0.0732422 -0.114258 0.868512 0.242315 -0.252771 -0.936691 
-0.0673828 -0.114258 0.869569 0.108349 -0.262388 -0.95886 
-0.0615234 -0.114258 0.86983 -0.0346213 -0.268276 -0.96272 
-0.0556641 -0.114258 0.869332 -0.0975095 -0.272825 -0.957109 
-0.0498047 -0.114258 0.868699 -0.18833 -0.311943 -0.931248 
-0.0410057 -0.114258 0.866211 -0.177774 -0.39048 -0.903284 
-0.0439453 -0.112723 0.866211 -0.250967 -0.368158 -0.895252 
-0.0439453 -0.114258 0.866891 -0.247695 -0.367772 -0.896321 
-0.0925193 -0.125977 0.866211 0.299732 -0.287937 -0.909535 
-0.0908203 -0.123807 0.866211 0.269862 -0.350036 -0.897022 
-0.0908203 -0.125977 0.867043 0.280412 -0.303959 -0.910482 
-0.0849609 -0.120444 0.866211 0.216275 -0.238407 -0.946777 
-0.0849609 -0.125977 0.868295 0.195847 -0.304812 -0.932059 
-0.0791016 -0.125977 0.869228 0.186456 -0.23108 -0.954901 
-0.0732422 -0.125977 0.870053 0.119715 -0.125463 -0.984849 
-0.0673828 -0.125977 0.870871 0.0978863 -0.0809946 -0.991896 
-0.0615234 -0.125977 0.871117 0.0386488 -0.090108 -0.995182 
-0.0556641 -0.125977 0.870938 -0.0604726 -0.123285 -0.990527 
-0.0498047 -0.125977 0.870707 -0.0774011 -0.126544 -0.988937 
-0.0439453 -0.125977 0.870309 -0.103919 -0.127298 -0.986406 
-0.0380859 -0.125977 0.869584 -0.150442 -0.167465 -0.974332 
-0.0322266 -0.125977 0.86903 -0.181226 -0.162842 -0.969866 
-0.0229945 -0.125977 0.866211 -0.311542 -0.154415 -0.937602 
-0.0263672 -0.121599 0.866211 -0.27262 -0.286033 -0.91862 
-0.0263672 -0.125977 0.867473 -0.282015 -0.165807 -0.944974 
-0.0845268 -0.120117 0.866211 0.22722 -0.223964 -0.94774 
-0.0791016 -0.120117 0.867835 0.2615 -0.239559 -0.935002 
-0.0732422 -0.120117 0.869593 0.222416 -0.167102 -0.960525 
-0.0673828 -0.120117 0.870772 0.105914 -0.0993282 -0.989402 
-0.0615234 -0.120117 0.870958 -0.0197803 -0.127803 -0.991602 
-0.0556641 -0.120117 0.870243 -0.0635508 -0.138027 -0.988388 
-0.0498047 -0.120117 0.869926 -0.130452 -0.223666 -0.965896 
-0.0439453 -0.120117 0.869424 -0.193752 -0.29863 -0.934495 
-0.0380859 -0.115764 0.866211 -0.161867 -0.397459 -0.90323 
-0.0380859 -0.120117 0.86816 -0.155059 -0.332207 -0.930374 
-0.0276539 -0.120117 0.866211 -0.251721 -0.311511 -0.916296 
-0.0322266 -0.117638 0.866211 -0.172594 -0.370234 -0.912764 
-0.0322266 -0.120117 0.867408 -0.181968 -0.325605 -0.92783 
-0.0981884 -0.0966797 0.854492 0.47757 -0.339717 -0.810259 
-0.0966797 -0.0944124 0.854492 0.464006 -0.352562 -0.812649 
-0.0966797 -0.0966797 0.855326 0.450563 -0.337203 -0.826612 
-0.0908203 -0.0966797 0.858408 0.334713 -0.358707 -0.871376 
-0.0849609 -0.0966797 0.859876 0.195351 -0.353332 -0.914874 
-0.0439453 -0.0966797 0.859869 -0.150013 -0.247307 -0.957254 
-0.0380859 -0.0966797 0.859348 -0.0903488 -0.191546 -0.977316 
-0.0322266 -0.0966797 0.858902 -0.13487 -0.209092 -0.968551 
-0.0263672 -0.0966797 0.857296 -0.307066 -0.273627 -0.911503 
-0.0192673 -0.0966797 0.854492 -0.352163 -0.233499 -0.906344 
-0.0205078 -0.094177 0.854492 -0.325484 -0.239792 -0.914637 
-0.0205078 -0.0966797 0.854987 -0.340233 -0.240849 -0.908974 
-0.0914426 -0.102539 0.860352 0.30449 -0.312466 -0.899806 
-0.0908203 -0.101846 0.860352 0.289888 -0.326066 -0.899803 
-0.0908203 -0.102539 0.86061 0.295858 -0.318821 -0.900456 
-0.0849609 -0.0976584 0.860352 0.195351 -0.353332 -0.914874 
-0.0849609 -0.102539 0.862114 0.199753 -0.304447 -0.931349 
-0.0791016 -0.102539 0.86308 0.179822 -0.333587 -0.92541 
-0.0732422 -0.102539 0.86407 0.152008 -0.417658 -0.895799 
-0.0673828 -0.102539 0.864924 0.0856868 -0.432039 -0.897775 
-0.0615234 -0.102539 0.865174 -0.0257304 -0.456672 -0.889263 
-0.0556641 -0.102539 0.864695 -0.0989991 -0.413525 -0.905094 
-0.0498047 -0.102539 0.8638 -0.198004 -0.408199 -0.891161 
-0.0439453 -0.0982357 0.860352 -0.150013 -0.247307 -0.957254 
-0.0439453 -0.102539 0.861894 -0.235216 -0.363044 -0.901594 
-0.0371401 -0.102539 0.860352 -0.142138 -0.258624 -0.955464 
-0.0380859 -0.102019 0.860352 -0.162518 -0.302451 -0.939208 
-0.0380859 -0.102539 0.860484 -0.162518 -0.302451 -0.939208 
-0.0747904 -0.108398 0.866211 0.246253 -0.300387 -0.921481 
-0.0732422 -0.107626 0.866211 0.21134 -0.350373 -0.912455 
-0.0732422 -0.108398 0.866623 0.233939 -0.31771 -0.918876 
-0.0673828 -0.104994 0.866211 0.0939783 -0.395741 -0.913541 
-0.0673828 -0.108398 0.867915 0.0998646 -0.352364 -0.93052 
-0.0615234 -0.10495 0.866211 -0.0257304 -0.456672 -0.889263 
-0.0615234 -0.108398 0.867575 -0.0251558 -0.348804 -0.936858 
-0.0556641 -0.105566 0.866211 -0.103212 -0.396372 -0.91227 
-0.0556641 -0.108398 0.867422 -0.0986345 -0.362116 -0.9269 
-0.0491136 -0.108398 0.866211 -0.232361 -0.36728 -0.900619 
-0.0498047 -0.107896 0.866211 -0.220046 -0.386494 -0.895657 
-0.0498047 -0.108398 0.866454 -0.232361 -0.36728 -0.900619 
-0.0819824 -0.0966797 0.860352 0.13242 -0.351522 -0.926767 
-0.0791016 -0.0952331 0.860352 0.0979148 -0.356132 -0.929292 
-0.0791016 -0.0966797 0.860736 0.108343 -0.337853 -0.934942 
-0.0732422 -0.0943705 0.860352 0.0526507 -0.388506 -0.919941 
-0.0732422 -0.0966797 0.861326 0.0723973 -0.390621 -0.9177 
-0.0673828 -0.093405 0.860352 0.00831246 -0.327133 -0.944942 
-0.0673828 -0.0966797 0.861568 0.015361 -0.426611 -0.904305 
-0.0615234 -0.094205 0.860352 -0.00503818 -0.324645 -0.945822 
-0.0615234 -0.0966797 0.861468 -0.00586713 -0.448656 -0.893685 
-0.0556641 -0.0936805 0.860352 -0.0319268 -0.315453 -0.948404 
-0.0556641 -0.0966797 0.861748 -0.0364503 -0.427778 -0.903149 
-0.0463725 -0.0966797 0.860352 -0.145447 -0.343641 -0.927769 
-0.0498047 -0.0949162 0.860352 -0.104426 -0.335071 -0.936388 
-0.0498047 -0.0966797 0.861057 -0.163753 -0.39012 -0.906086 
-0.0556641 -0.0908203 0.631127 0.0152519 0.358147 0.933541 
-0.0615234 -0.0849609 0.629803 0.175522 0.33189 0.926845 
-0.0556641 -0.0849609 0.62982 -0.0263526 0.2825 0.958905 
-0.0498047 -0.0849609 0.630514 -0.316143 0.194374 0.928586 
-0.0673828 -0.0673828 0.630431 0.22772 -0.449942 0.863537 
-0.0615234 -0.0673828 0.629601 0.0570321 -0.280645 0.958116 
-0.0556641 -0.0673828 0.629466 -0.18403 -0.2659 0.946272 
-0.0732422 -0.0791016 0.63083 0.418984 0.300105 0.856965 
-0.0673828 -0.0791016 0.629226 0.165802 0.179192 0.969742 
-0.0615234 -0.0791016 0.628696 0.116742 0.135469 0.98388 
-0.0556641 -0.0791016 0.628201 -0.131479 0.0420426 0.990427 
-0.0498047 -0.0791016 0.629581 -0.367718 0.0105686 0.929877 
-0.0732422 -0.0732422 0.630578 0.371069 -0.0692709 0.926018 
-0.0673828 -0.0732422 0.629323 0.15053 -0.145199 0.977884 
-0.0615234 -0.0732422 0.629119 0.0893344 -0.130655 0.987395 
-0.0556641 -0.0732422 0.629083 -0.17533 -0.138461 0.974725 
-0.0498047 -0.0732422 0.630476 -0.374307 -0.171382 0.91133 
-0.0673828 -0.0615234 0.636085 0.384534 -0.668032 0.637076 
-0.0615234 -0.0615234 0.632926 0.151405 -0.727525 0.669167 
-0.0556641 -0.0615234 0.633081 -0.21592 -0.690756 0.690098 
-0.0498047 -0.0615234 0.636531 -0.452048 -0.53452 0.714102 
-0.0732422 -0.0908203 0.636601 0.321176 0.345348 0.881805 
-0.0673828 -0.0908203 0.635135 0.282532 0.405287 0.869435 
-0.058074 -0.0908203 0.631836 0.11229 0.405927 0.906981 
-0.0615234 -0.0892494 0.631836 0.286547 0.460485 0.840145 
-0.0615234 -0.0908203 0.632833 0.277191 0.432153 0.858143 
-0.0515269 -0.0908203 0.631836 -0.153247 0.275437 0.949026 
-0.0498047 -0.0891848 0.631836 -0.334405 0.292048 0.896037 
-0.0498047 -0.0908203 0.632437 -0.263275 0.321801 0.909467 
-0.0439453 -0.0908203 0.635988 -0.556186 0.270064 0.785953 
-0.0791016 -0.0673828 0.63728 0.549205 -0.558794 0.621388 
-0.0722882 -0.0673828 0.631836 0.409248 -0.465482 0.784756 
-0.0732422 -0.0673828 0.632485 0.45891 -0.536773 0.708009 
-0.0673828 -0.0653901 0.631836 0.270945 -0.66187 0.69894 
-0.0615234 -0.0628176 0.631836 0.14146 -0.625165 0.767566 
-0.0511197 -0.0673828 0.631836 -0.422612 -0.350955 0.835601 
-0.0556641 -0.0624462 0.631836 -0.248533 -0.571254 0.782241 
-0.0498047 -0.0673828 0.633097 -0.547591 -0.383117 0.743886 
-0.0756917 -0.0791016 0.631836 0.638691 0.233601 0.733147 
-0.0791016 -0.0791016 0.636118 0.695623 0.233351 0.679453 
-0.0466092 -0.0791016 0.631836 -0.718018 -0.113243 0.68675 
-0.0439453 -0.0791016 0.63442 -0.605339 -0.258369 0.752868 
-0.0732422 -0.0813372 0.631836 0.404812 0.333297 0.851493 
-0.0732422 -0.0849609 0.633984 0.426921 0.444982 0.787229 
-0.0673509 -0.0849609 0.631836 0.298011 0.432956 0.850728 
-0.0673828 -0.0849327 0.631836 0.295989 0.435789 0.849987 
-0.0673828 -0.0849609 0.631854 0.298011 0.432956 0.850728 
-0.0470639 -0.0849609 0.631836 -0.531774 0.179902 0.827558 
-0.0439453 -0.0849609 0.634044 -0.549614 0.156923 0.820548 
-0.075996 -0.0732422 0.631836 0.593948 -0.101597 0.798062 
-0.0791016 -0.0732422 0.634353 0.732044 -0.0777039 0.676812 
-0.0732422 -0.0684963 0.631836 0.42635 -0.44294 0.788688 
-0.0480371 -0.0732422 0.631836 -0.740781 -0.232622 0.630183 
-0.0498047 -0.0693502 0.631836 -0.532478 -0.327668 0.780449 
-0.0690465 -0.0615234 0.637695 0.470211 -0.669009 0.575611 
-0.0732422 -0.0615234 0.642621 0.531654 -0.501705 0.682375 
-0.0673828 -0.0602331 0.637695 0.420868 -0.69978 0.577216 
-0.0615234 -0.0580803 0.637695 0.102404 -0.785878 0.609844 
-0.0556641 -0.0587718 0.637695 -0.154582 -0.791427 0.591395 
-0.047654 -0.0615234 0.637695 -0.517275 -0.499259 0.695102 
-0.0498047 -0.0605416 0.637695 -0.315154 -0.656172 0.68565 
-0.0439453 -0.0615234 0.639974 -0.539815 -0.453001 0.709499 
-0.079531 -0.0673828 0.637695 0.525577 -0.554226 0.645447 
-0.0849609 -0.0673828 0.642396 0.659223 -0.3917 0.641869 
-0.0791016 -0.0671858 0.637695 0.525577 -0.554226 0.645447 
-0.0732422 -0.064705 0.637695 0.426023 -0.777506 0.462589 
-0.0446615 -0.0673828 0.637695 -0.660085 -0.19934 0.724259 
-0.0439453 -0.0673828 0.63848 -0.690461 -0.170443 0.703002 
-0.0800922 -0.0791016 0.637695 0.775261 0.221303 0.591604 
-0.0396085 -0.0791016 0.637695 -0.581546 -0.263536 0.769645 
-0.0439453 -0.0734193 0.637695 -0.664287 -0.286131 0.690544 
-0.0380859 -0.0791016 0.639259 -0.582761 -0.228872 0.779748 
-0.0322266 -0.0791016 0.64344 -0.684568 -0.147584 0.713852 
-0.0771842 -0.0908203 0.637695 0.526443 0.298015 0.796269 
-0.0791016 -0.0908203 0.638999 0.545016 0.2415 0.802892 
-0.0417888 -0.0908203 0.637695 -0.621324 0.288348 0.728568 
-0.0380859 -0.0908203 0.64088 -0.640188 0.284465 0.71361 
-0.0819985 -0.0732422 0.637695 0.728851 -0.0510099 0.68277 
-0.0849609 -0.0732422 0.641803 0.745817 0.0594237 0.663495 
-0.0440301 -0.0732422 0.637695 -0.664287 -0.286131 0.690544 
-0.0439453 -0.0732422 0.637815 -0.664287 -0.286131 0.690544 
-0.0380859 -0.0732422 0.642241 -0.541508 -0.379562 0.750135 
-0.0785068 -0.0849609 0.637695 0.641805 0.222439 0.733899 
-0.0791016 -0.0827249 0.637695 0.715813 0.205244 0.667448 
-0.0791016 -0.0849609 0.638524 0.691304 0.181212 0.699472 
-0.0388215 -0.0849609 0.637695 -0.614782 0.110433 0.780927 
-0.0380859 -0.0849609 0.63832 -0.648469 0.140049 0.748247 
-0.0849609 -0.0615234 0.64797 0.46899 -0.374375 0.799933 
-0.0746906 -0.0615234 0.643555 0.488695 -0.440467 0.753104 
-0.0791016 -0.0615234 0.645599 0.317098 -0.343971 0.883817 
-0.0732422 -0.0589931 0.643555 0.444744 -0.382329 0.809955 
-0.0408448 -0.0615234 0.643555 -0.661856 -0.262818 0.702049 
-0.0439453 -0.0576779 0.643555 -0.446335 -0.550715 0.705335 
-0.0380859 -0.0615234 0.646561 -0.496164 -0.167424 0.851934 
-0.0322266 -0.0615234 0.649293 -0.415566 -0.0749391 0.906471 
-0.0908203 -0.0791016 0.648473 0.595637 0.0995831 0.797057 
-0.0845692 -0.0791016 0.643555 0.703174 0.23917 0.669584 
-0.0849609 -0.0779346 0.643555 0.703174 0.23917 0.669584 
-0.0849609 -0.0791016 0.644051 0.663785 0.224819 0.713334 
-0.0321325 -0.0791016 0.643555 -0.684568 -0.147584 0.713852 
-0.0322266 -0.0788463 0.643555 -0.684568 -0.147584 0.713852 
-0.0868857 -0.0732422 0.643555 0.745818 0.0594236 0.663495 
-0.0908203 -0.0732422 0.647848 0.69558 -0.0408332 0.717287 
-0.0354856 -0.0732422 0.643555 -0.541614 -0.361761 0.758804 
-0.0380859 -0.0706363 0.643555 -0.588201 -0.310999 0.746525 
-0.0322266 -0.0732422 0.646181 -0.548115 -0.372405 0.748922 
-0.0861251 -0.0673828 0.643555 0.527202 -0.40505 0.746989 
-0.0908203 -0.0673828 0.648413 0.658864 -0.266084 0.703632 
-0.0849609 -0.0665179 0.643555 0.550465 -0.482825 0.681078 
-0.0791016 -0.0633864 0.643555 0.41148 -0.751223 0.516089 
-0.0395173 -0.0673828 0.643555 -0.699172 -0.261951 0.665237 
-0.0380859 -0.0673828 0.645504 -0.597452 -0.290334 0.747501 
-0.0322266 -0.0673828 0.649279 -0.471668 -0.173054 0.864628 
-0.0908203 -0.0908203 0.649121 0.357802 -0.0547526 0.932191 
-0.0825896 -0.0908203 0.643555 0.747582 0.10765 0.655388 
-0.0849609 -0.0908203 0.646397 0.533097 0.0344012 0.845355 
-0.0354682 -0.0908203 0.643555 -0.638133 0.233292 0.733731 
-0.0322266 -0.0908203 0.646627 -0.611579 0.106708 0.783954 
-0.0908203 -0.0849609 0.649378 0.468787 0.0173864 0.88314 
-0.0831875 -0.0849609 0.643555 0.758734 0.138309 0.636548 
-0.0849609 -0.0849609 0.645754 0.60848 0.138394 0.781408 
-0.0327342 -0.0849609 0.643555 -0.717671 0.181555 0.672299 
-0.0322266 -0.0800999 0.643555 -0.684568 -0.147584 0.713852 
-0.0322266 -0.0849609 0.644179 -0.717671 0.181555 0.672299 
-0.0926539 -0.0732422 0.649414 0.590752 -0.0462238 0.805528 
-0.0966797 -0.0732422 0.652446 0.53867 -0.106526 0.835755 
-0.0283109 -0.0732422 0.649414 -0.503983 -0.2284 0.832967 
-0.0263672 -0.0732422 0.650608 -0.408272 -0.137527 0.902441 
-0.0205078 -0.0732422 0.652314 -0.342819 -0.135056 0.929643 
-0.0146484 -0.0732422 0.654344 -0.313953 -0.136546 0.939568 
-0.102539 -0.0791016 0.655079 0.405598 -0.0884689 0.90976 
-0.0921772 -0.0791016 0.649414 0.562829 0.0597141 0.824414 
-0.0966797 -0.0791016 0.652115 0.499765 -0.015871 0.866016 
-0.0276732 -0.0791016 0.649414 -0.78092 -0.0206162 0.62429 
-0.0263672 -0.0791016 0.650548 -0.516087 -0.0233205 0.856218 
-0.0205078 -0.0791016 0.652191 -0.301464 -0.0335184 0.952888 
-0.0146484 -0.0791016 0.654076 -0.319501 -0.0496894 0.946282 
-0.087585 -0.0615234 0.649414 0.575159 -0.291486 0.764348 
-0.0908203 -0.0615234 0.651809 0.544607 -0.297546 0.784136 
-0.0319911 -0.0615234 0.649414 -0.407698 -0.0796451 0.909637 
-0.0322266 -0.0608871 0.649414 -0.415566 -0.0749391 0.906471 
-0.0263672 -0.0615234 0.65195 -0.411274 -0.158385 0.897646 
-0.0205078 -0.0615234 0.654519 -0.378862 -0.196917 0.90426 
-0.102539 -0.0849609 0.654628 0.379608 -0.0608494 0.923144 
-0.0908835 -0.0849609 0.649414 0.468787 0.0173864 0.88314 
-0.0966797 -0.0849609 0.652242 0.416875 -0.00960124 0.908913 
-0.0277925 -0.0849609 0.649414 -0.596332 0.0176852 0.802543 
-0.0263672 -0.0849609 0.650482 -0.478736 -0.0304847 0.87743 
-0.0205078 -0.0849609 0.651843 -0.280406 -0.0585362 0.958095 
-0.0146484 -0.0849609 0.653707 -0.323028 -0.0497119 0.945083 
-0.102539 -0.0908203 0.654302 0.399739 -0.0877409 0.91242 
-0.0914685 -0.0908203 0.649414 0.398 -0.083656 0.913563 
-0.0966797 -0.0908203 0.651781 0.406606 -0.111935 0.90672 
-0.0275829 -0.0908203 0.649414 -0.382169 -0.0972551 0.91896 
-0.0263672 -0.0908203 0.649984 -0.36851 -0.114261 0.922575 
-0.0205078 -0.0908203 0.651628 -0.286613 -0.0884076 0.953959 
-0.0146484 -0.0908203 0.653058 -0.366371 -0.0377035 0.929705 
-0.0921584 -0.0673828 0.649414 0.654701 -0.261647 0.70916 
-0.0966797 -0.0673828 0.653387 0.595333 -0.246454 0.764748 
-0.0908203 -0.0658418 0.649414 0.610321 -0.303286 0.731797 
-0.0319227 -0.0673828 0.649414 -0.471668 -0.173055 0.864628 
-0.0263672 -0.0673828 0.651484 -0.354419 -0.111321 0.928437 
-0.0205078 -0.0673828 0.653661 -0.352575 -0.172528 0.919742 
0.00292969 -0.0791016 0.660578 -0.497741 -0.137403 0.856373 
0.00292969 -0.0849609 0.6605 -0.460046 -0.0394286 0.887019 
0.00292969 -0.0908203 0.660282 -0.442277 0.0408584 0.895947 
0.00292969 -0.0732422 0.66236 -0.578605 -0.266507 0.770838 
