ply
format ascii 1.0
comment author Lingfeng Ai
element vertex 1814
property float x
property float y
property float z
end_header
0.512695 0.245486 1.63965
0.512695 0.243164 1.64123
0.518555 0.243164 1.64232
0.547852 0.246698 1.63965
0.547852 0.243164 1.64247
0.555216 0.243164 1.63965
0.553711 0.243164 1.64448
0.569983 0.237305 1.5752
0.56543 0.237305 1.57999
0.609975 0.237305 1.5752
0.612305 0.239622 1.5752
0.612305 0.237305 1.57799
0.618164 0.237305 1.57785
0.624023 0.239653 1.5752
0.624023 0.237305 1.57768
0.629883 0.239649 1.5752
0.629883 0.237305 1.57663
0.635742 0.239037 1.5752
0.635742 0.237305 1.57768
0.469762 0.237305 1.64551
0.47168 0.240572 1.64551
0.517571 0.237305 1.64551
0.518555 0.23855 1.64551
0.518555 0.237305 1.64625
0.524414 0.237305 1.65111
0.545513 0.237305 1.64551
0.541992 0.237305 1.65091
-0.138525 0.254883 1.19434
-0.143555 0.254883 1.19729
-0.071508 0.254883 1.19434
0.565715 0.243164 1.58105
0.56543 0.24502 1.58105
0.574547 0.243164 1.58105
0.571289 0.243164 1.58547
0.577148 0.243164 1.58397
-0.162317 0.225586 1.2002
-0.138824 0.225586 1.2002
-0.143555 0.225586 1.20315
-0.0715888 0.225586 1.2002
-0.0628849 0.225586 1.2002
-0.0673828 0.225586 1.20344
0.566366 0.231445 1.58105
0.56543 0.231445 1.58216
0.574681 0.231445 1.58105
0.571289 0.236305 1.58105
0.577148 0.231445 1.58382
0.631943 0.231445 1.58105
0.635742 0.23521 1.58105
0.635742 0.231445 1.58321
0.641602 0.231445 1.58649
0.477539 0.225586 1.63558
0.483398 0.230844 1.63379
0.483398 0.225586 1.63564
0.489258 0.22874 1.63379
0.489258 0.225586 1.63541
0.495117 0.225586 1.63735
0.553253 0.225586 1.63379
0.553711 0.225586 1.63442
-0.166992 0.249023 1.20677
-0.161133 0.249023 1.20913
-0.153335 0.249023 1.20605
-0.155273 0.249023 1.20833
0.477539 0.259468 1.63379
0.48687 0.254883 1.63379
0.489258 0.257649 1.63379
0.495117 0.258907 1.63379
0.522256 0.254883 1.63379
0.518555 0.259636 1.63379
0.524414 0.259375 1.63379
0.524414 0.254883 1.6361
0.530273 0.257558 1.63379
0.530273 0.254883 1.6367
0.536133 0.259912 1.63379
0.547852 0.254883 1.63635
0.553711 0.254883 1.63616
0.560693 0.254883 1.63379
0.55957 0.254883 1.6343
0.56543 0.250021 1.58691
0.57296 0.249023 1.58691
0.571289 0.25069 1.58691
0.579462 0.249023 1.58691
-0.172852 0.247822 1.21191
0.482581 0.249023 1.63965
0.483398 0.250812 1.63965
0.517033 0.249023 1.63965
0.518555 0.250203 1.63965
0.518555 0.249023 1.64091
0.524414 0.251989 1.63965
0.524414 0.249023 1.64342
0.530273 0.253713 1.63965
0.545707 0.249023 1.63965
0.541992 0.249023 1.64504
0.550122 0.249023 1.63965
0.55479 0.249023 1.63965
0.553711 0.252689 1.63965
0.553711 0.249023 1.64458
0.56543 0.254883 1.59791
0.571289 0.254883 1.59813
0.578292 0.254883 1.59277
0.577148 0.254883 1.59791
0.47379 0.231445 1.63965
0.47168 0.234482 1.63965
0.47168 0.231445 1.64255
0.502441 0.231445 1.63965
0.506836 0.231445 1.64313
0.557095 0.231445 1.63965
0.570139 0.225586 1.5752
0.571289 0.226733 1.5752
0.571289 0.225586 1.57654
0.609874 0.225586 1.5752
0.606445 0.228869 1.5752
0.612305 0.225586 1.57774
0.618164 0.225586 1.57849
0.624023 0.225586 1.57991
-0.161547 0.231445 1.20605
-0.161133 0.232674 1.20605
-0.161133 0.231445 1.20778
-0.155273 0.231445 1.20924
-0.148714 0.231445 1.20605
-0.149414 0.232966 1.20605
-0.149414 0.231445 1.20663
0.571289 0.238326 1.58105
0.571289 0.237305 1.58223
0.577148 0.237305 1.5838
0.637861 0.237305 1.58105
0.641602 0.240995 1.58105
0.641602 0.237305 1.58317
0.647461 0.242331 1.58105
0.647461 0.237305 1.58662
0.65332 0.242032 1.58105
-0.146933 0.254883 1.2002
-0.149414 0.254883 1.20219
0.473864 0.243164 1.64551
0.477539 0.246504 1.64551
0.520744 0.243164 1.64551
0.524414 0.247095 1.64551
0.524414 0.243164 1.64794
0.543855 0.243164 1.64551
0.541992 0.24806 1.64551
0.541992 0.243164 1.6472
0.56543 0.243164 1.58902
0.572973 0.243164 1.58691
0.571289 0.243164 1.58901
0.57945 0.243164 1.58691
0.56543 0.235722 1.58691
0.579096 0.231445 1.58691
0.641989 0.231445 1.58691
0.647461 0.236881 1.58691
0.459961 0.237305 1.65493
0.469577 0.237305 1.65137
0.46582 0.237305 1.65347
0.47168 0.242623 1.65137
0.525024 0.237305 1.65137
0.530273 0.237305 1.65696
0.541732 0.237305 1.65137
0.536133 0.237305 1.65705
0.541992 0.237305 1.65175
-0.16173 0.225586 1.20605
-0.161133 0.225586 1.20979
-0.155273 0.225586 1.21133
-0.146768 0.225586 1.20605
-0.149414 0.225586 1.20883
-0.170418 0.249023 1.21191
-0.172852 0.249023 1.21748
0.56543 0.252132 1.59277
0.56543 0.249023 1.59654
0.573877 0.249023 1.59277
0.571289 0.251603 1.59277
0.571289 0.249023 1.5966
0.578704 0.249023 1.59277
0.46582 0.225586 1.6423
0.472328 0.225586 1.63965
0.47168 0.225586 1.64022
0.498995 0.225586 1.63965
0.500977 0.228465 1.63965
0.500977 0.225586 1.64099
0.541992 0.225586 1.64506
0.557572 0.225586 1.63965
0.485127 0.254883 1.63965
0.483398 0.25731 1.63965
0.534305 0.254883 1.63965
0.536133 0.255556 1.63965
0.536133 0.254883 1.6406
0.544656 0.254883 1.63965
0.541992 0.257716 1.63965
0.541992 0.254883 1.64232
0.571289 0.25592 1.59863
0.577148 0.255932 1.59863
0.56543 0.230506 1.58105
0.574655 0.225586 1.58105
0.625084 0.225586 1.58105
0.629883 0.230371 1.58105
0.629883 0.225586 1.58661
0.479883 0.249023 1.64551
0.483398 0.25301 1.64551
0.526752 0.249023 1.64551
0.530273 0.250576 1.64551
0.530273 0.249023 1.65017
0.541697 0.249023 1.64551
0.536133 0.252812 1.64551
0.469498 0.231445 1.64551
0.46582 0.231445 1.64807
0.511564 0.231445 1.64551
0.512695 0.232395 1.64551
0.512695 0.231445 1.64616
0.547852 0.234714 1.64551
0.555794 0.231445 1.64551
0.553711 0.236449 1.64551
0.567007 0.237305 1.58691
0.56543 0.237305 1.58895
0.571289 0.241526 1.58691
0.579656 0.237305 1.58691
0.647888 0.237305 1.58691
0.65332 0.240741 1.58691
0.56543 0.246493 1.59277
0.571289 0.24643 1.59277
0.578695 0.243164 1.59277
0.578667 0.231445 1.59277
0.647299 0.231445 1.59277
0.647461 0.232914 1.59277
0.647461 0.231445 1.59294
-0.166992 0.254883 1.21079
-0.161133 0.254883 1.20921
-0.155039 0.254883 1.20605
-0.155273 0.25756 1.20605
-0.155273 0.254883 1.20622
0.46582 0.243164 1.65236
0.471769 0.243164 1.65137
0.47168 0.243164 1.65157
0.477539 0.247285 1.65137
0.528867 0.243164 1.65137
0.530273 0.247274 1.65137
0.530273 0.243164 1.65383
0.539449 0.243164 1.65137
0.541992 0.243164 1.656
0.56543 0.253811 1.59863
0.56543 0.249023 1.60185
0.571289 0.253817 1.59863
0.571289 0.249023 1.60186
0.577771 0.249023 1.59863
0.577148 0.253804 1.59863
0.56543 0.254883 1.60631
0.571289 0.254883 1.60639
0.577148 0.254883 1.60523
0.583008 0.254883 1.60593
0.459961 0.237305 1.66035
0.536399 0.237305 1.65723
0.536133 0.239556 1.65723
0.54724 0.237305 1.65723
0.553711 0.237305 1.66302
0.55957 0.237305 1.66297
0.463642 0.225586 1.64551
0.46582 0.227989 1.64551
0.505059 0.225586 1.64551
0.506836 0.227983 1.64551
0.506836 0.225586 1.64727
0.512695 0.225586 1.65082
0.541758 0.225586 1.64551
0.543202 0.225586 1.64551
0.541992 0.225914 1.64551
0.547852 0.225586 1.64863
0.555746 0.225586 1.64551
0.553711 0.225586 1.64977
0.484745 0.254883 1.64551
0.483398 0.25647 1.64551
0.483398 0.254883 1.64853
0.573762 0.225586 1.58691
0.577148 0.228965 1.58691
0.630456 0.225586 1.58691
0.635742 0.22803 1.58691
0.641602 0.23106 1.58691
0.479151 0.249023 1.65137
0.477539 0.249023 1.65394
0.531378 0.249023 1.65137
0.538268 0.249023 1.65137
0.536133 0.250976 1.65137
0.536133 0.249023 1.65603
0.553711 0.249023 1.65502
0.55957 0.249023 1.65505
0.462215 0.231445 1.65137
0.46582 0.235437 1.65137
0.517116 0.231445 1.65137
0.518555 0.232997 1.65137
0.518555 0.231445 1.65318
0.524414 0.236458 1.65137
0.524414 0.231445 1.65401
0.530273 0.231445 1.65611
0.536133 0.231445 1.65707
0.541992 0.236547 1.65137
0.541992 0.231445 1.65457
0.547852 0.232243 1.65137
0.547852 0.231445 1.65205
0.554217 0.231445 1.65137
0.553711 0.23265 1.65137
0.553711 0.231445 1.65306
0.578681 0.237305 1.59277
0.647891 0.237305 1.59277
0.65332 0.239214 1.59277
0.65332 0.237305 1.59605
0.56543 0.243164 1.60203
0.571289 0.243164 1.60258
0.578012 0.243164 1.59863
0.583008 0.243164 1.60414
0.577989 0.231445 1.59863
0.650009 0.231445 1.59863
0.65332 0.234944 1.59863
0.65332 0.231445 1.60221
-0.169213 0.254883 1.21191
-0.172852 0.259751 1.21191
-0.172852 0.254883 1.21396
0.56543 0.249023 1.60513
0.576258 0.249023 1.60449
0.571289 0.249023 1.60511
0.578032 0.249023 1.60449
0.577148 0.249817 1.60449
0.583008 0.249023 1.605
0.460172 0.225586 1.65137
0.459961 0.225586 1.65184
0.513115 0.225586 1.65137
0.539754 0.225586 1.65137
0.541992 0.229647 1.65137
0.547852 0.229172 1.65137
0.553711 0.229038 1.65137
0.46582 0.246351 1.65723
0.47168 0.246429 1.65723
0.534803 0.243164 1.65723
0.536133 0.245869 1.65723
0.536133 0.243164 1.65811
0.542857 0.243164 1.65723
0.541992 0.244958 1.65723
0.541992 0.243164 1.65829
0.553711 0.247004 1.65723
0.55957 0.246975 1.65723
0.55957 0.243164 1.66291
0.461395 0.237305 1.66309
0.54092 0.237305 1.66309
0.542967 0.237305 1.66309
0.541992 0.238513 1.66309
0.541992 0.237305 1.66428
0.553621 0.237305 1.66309
0.553711 0.237423 1.66309
0.553711 0.237305 1.66313
0.55957 0.237305 1.66336
0.454102 0.254883 1.65634
0.482297 0.254883 1.65137
0.483398 0.25578 1.65137
0.572841 0.225586 1.59277
0.577148 0.229885 1.59277
0.577148 0.225586 1.59758
0.635563 0.225586 1.59277
0.635742 0.225765 1.59277
0.635742 0.225586 1.59297
0.641602 0.225803 1.59277
0.641602 0.225586 1.593
-0.170166 0.225586 1.22949
-0.172852 0.227351 1.22949
0.473932 0.249023 1.65723
0.47168 0.249023 1.66099
0.477539 0.250796 1.65723
0.541992 0.249023 1.66076
0.551333 0.249023 1.65723
0.553711 0.253669 1.65723
0.553711 0.249023 1.65987
0.560578 0.249023 1.65723
0.55957 0.251044 1.65723
0.56543 0.243164 1.60503
0.574587 0.243164 1.60449
0.571289 0.243164 1.60503
0.583303 0.243164 1.60449
0.583008 0.245489 1.60449
0.56543 0.237305 1.60192
0.578002 0.237305 1.59863
0.583008 0.237305 1.60415
0.658159 0.237305 1.59863
0.65918 0.237622 1.59863
0.65918 0.237305 1.59985
0.460995 0.231445 1.65723
0.459961 0.233807 1.65723
0.459961 0.231445 1.66167
0.541992 0.233094 1.65723
0.547852 0.231445 1.66239
0.56543 0.233248 1.60449
0.577497 0.231445 1.60449
0.583008 0.237019 1.60449
0.656948 0.231445 1.60449
0.65918 0.233902 1.60449
0.65918 0.231445 1.60739
0.56543 0.254883 1.62497
0.46582 0.246443 1.66309
0.541992 0.247558 1.66309
0.559274 0.243164 1.66309
0.55957 0.243164 1.66351
0.457279 0.225586 1.65723
0.454102 0.225586 1.66039
0.459961 0.229216 1.65723
0.515479 0.225586 1.65723
0.518555 0.228435 1.65723
0.518555 0.225586 1.65954
0.524414 0.229963 1.65723
0.530273 0.230818 1.65723
0.538531 0.225586 1.65723
0.536133 0.23133 1.65723
0.541992 0.225586 1.66107
-0.170967 0.225586 1.23535
-0.172852 0.22694 1.23535
-0.172852 0.225586 1.24025
0.577999 0.225586 1.59863
0.643309 0.225586 1.59863
0.647461 0.229727 1.59863
0.647461 0.225586 1.60301
0.456308 0.254883 1.65723
0.482003 0.254883 1.65723
0.483398 0.25588 1.65723
0.483398 0.254883 1.6621
0.55957 0.254883 1.66282
0.442383 0.237305 1.67238
0.569343 0.237305 1.60449
0.56543 0.237305 1.60506
0.571289 0.239312 1.60449
0.583294 0.237305 1.60449
0.470322 0.249023 1.66309
0.47168 0.249952 1.66309
0.477539 0.249379 1.66309
0.483398 0.254696 1.66309
0.537896 0.249023 1.66309
0.544406 0.249023 1.66309
0.541992 0.249756 1.66309
0.541992 0.249023 1.66695
0.559226 0.249023 1.66309
0.55957 0.249023 1.66364
0.457714 0.231445 1.66309
0.459961 0.232606 1.66309
0.545819 0.231445 1.66309
0.541992 0.235155 1.66309
0.548682 0.231445 1.66309
0.547852 0.232352 1.66309
0.553711 0.237224 1.66309
0.55957 0.23717 1.66309
0.56759 0.254883 1.62793
0.571289 0.258624 1.62793
0.571289 0.254883 1.633
0.577148 0.25798 1.62793
0.577148 0.254883 1.63288
0.583008 0.257982 1.62793
0.583008 0.254883 1.63289
0.588867 0.25797 1.62793
0.588867 0.254883 1.63288
-0.174047 0.225586 1.24121
0.577493 0.225586 1.60449
0.649545 0.225586 1.60449
0.65332 0.229346 1.60449
0.56543 0.252692 1.62793
0.56543 0.249023 1.63003
0.571289 0.249023 1.63292
0.577148 0.249023 1.63294
0.449827 0.225586 1.66309
0.448242 0.225586 1.66477
0.454102 0.230049 1.66309
0.522967 0.225586 1.66309
0.524414 0.226566 1.66309
0.524414 0.225586 1.6647
0.530273 0.227381 1.66309
0.530273 0.225586 1.66853
0.536133 0.230227 1.66309
0.544208 0.225586 1.66309
0.541992 0.229861 1.66309
0.541992 0.225586 1.66862
0.547852 0.230819 1.66309
0.45781 0.254883 1.66309
0.459961 0.254883 1.66496
0.46582 0.254883 1.66705
0.477539 0.254883 1.66868
0.48358 0.254883 1.66309
0.483398 0.254883 1.6635
0.559157 0.254883 1.66309
0.55957 0.255305 1.66309
0.55957 0.254883 1.66376
0.56543 0.243164 1.62661
0.47168 0.254002 1.66895
0.448242 0.231445 1.67265
0.455674 0.231445 1.66895
0.454102 0.231445 1.67143
0.54597 0.231445 1.66895
0.548604 0.231445 1.66895
0.547852 0.232356 1.66895
0.547852 0.231445 1.66973
0.588867 0.254883 1.63736
-0.177799 0.225586 1.24707
-0.178711 0.225586 1.24828
0.65147 0.225586 1.61035
0.65332 0.22743 1.61035
0.65332 0.225586 1.61512
0.65918 0.229189 1.61035
0.65918 0.225586 1.61507
0.665039 0.229158 1.61035
0.665039 0.225586 1.61544
0.577847 0.249023 1.63379
0.583008 0.254247 1.63379
0.583008 0.249023 1.63662
0.588867 0.254582 1.63379
0.594727 0.254225 1.63379
0.530273 0.247943 1.68066
0.56543 0.235551 1.62793
0.56543 0.231445 1.63271
0.56543 0.237305 1.62516
0.446277 0.225586 1.66895
0.448242 0.228491 1.66895
0.454102 0.230004 1.66895
0.530858 0.225586 1.66895
0.540884 0.225586 1.66895
0.536133 0.226686 1.66895
0.541992 0.225586 1.66933
0.547852 0.230703 1.66895
0.805664 0.237305 1.77329
0.811523 0.237305 1.77228
0.817383 0.237305 1.77187
0.823242 0.237305 1.77323
0.829102 0.237305 1.77399
0.459961 0.260504 1.66895
0.468371 0.254883 1.66895
0.46582 0.257461 1.66895
0.475636 0.254883 1.66895
0.47168 0.254883 1.67174
0.477539 0.25516 1.66895
0.483398 0.258335 1.66895
0.805664 0.243164 1.77171
0.811523 0.243164 1.77112
0.817383 0.243164 1.77035
0.823242 0.243164 1.77138
0.829102 0.243164 1.77327
0.834961 0.243164 1.77263
0.84082 0.243164 1.77344
0.567488 0.243164 1.62793
0.56543 0.245432 1.62793
0.571289 0.243164 1.63295
0.577148 0.243164 1.63297
0.530273 0.249023 1.6798
0.446614 0.231445 1.6748
0.442383 0.235535 1.6748
0.442383 0.231445 1.68028
0.829102 0.254883 1.76408
0.834961 0.254883 1.76356
0.84082 0.254883 1.76682
0.58846 0.254883 1.63965
0.589273 0.254883 1.63965
0.588867 0.255293 1.63965
0.588867 0.254883 1.63987
0.805664 0.249023 1.77327
0.811523 0.249023 1.77057
0.817383 0.249023 1.77041
0.823242 0.249023 1.77068
0.829102 0.25074 1.76855
0.829102 0.249023 1.76954
0.834961 0.249075 1.76855
0.834961 0.249023 1.76858
0.84082 0.252239 1.76855
0.84082 0.249023 1.77039
0.84668 0.249023 1.77424
0.585606 0.249023 1.63965
0.588867 0.249023 1.64321
0.594727 0.252295 1.63965
0.799805 0.231445 1.77431
0.811523 0.231445 1.77399
0.817383 0.231445 1.77176
0.823242 0.231445 1.77308
0.566453 0.231445 1.63379
0.571289 0.236396 1.63379
0.571289 0.231445 1.63645
0.566398 0.237305 1.62793
0.571289 0.237305 1.6333
0.793945 0.237305 1.77577
0.802627 0.237305 1.77441
0.799805 0.237305 1.77539
0.831205 0.237305 1.77441
0.834961 0.239185 1.77441
0.834961 0.237305 1.77529
0.84082 0.24227 1.77441
0.84082 0.237305 1.77875
0.852539 0.237305 1.7788
0.788086 0.243164 1.78007
0.793945 0.243164 1.77754
0.800977 0.243164 1.77441
0.799805 0.243164 1.77494
0.841733 0.243164 1.77441
0.84668 0.248666 1.77441
0.84668 0.243164 1.77925
0.446121 0.225586 1.6748
0.442383 0.225586 1.68021
0.535928 0.225586 1.6748
0.536133 0.225601 1.6748
0.536133 0.225586 1.67484
0.543627 0.225586 1.6748
0.541992 0.229711 1.6748
0.47168 0.25675 1.6748
0.477539 0.257436 1.6748
0.483398 0.256768 1.6748
0.530273 0.254883 1.68038
0.577332 0.243164 1.63379
0.529165 0.249023 1.68066
0.531436 0.249023 1.68066
0.530273 0.249023 1.68336
0.44217 0.231445 1.68066
0.817383 0.258846 1.76855
0.817383 0.254883 1.77024
0.8257 0.254883 1.76855
0.823242 0.257864 1.76855
0.823242 0.254883 1.76992
0.841921 0.254883 1.76855
0.84668 0.254883 1.77269
0.56543 0.225586 1.63356
0.541992 0.241705 1.7041
0.59286 0.249023 1.64551
0.594727 0.250716 1.64551
0.788086 0.249023 1.77839
0.793945 0.249023 1.7783
0.802036 0.249023 1.77441
0.799805 0.249023 1.77501
0.805664 0.251757 1.77441
0.811523 0.254428 1.77441
0.847011 0.249023 1.77441
0.577109 0.231445 1.63965
0.577148 0.231445 1.63971
0.536133 0.246846 1.69824
0.541992 0.244056 1.69824
0.541992 0.243164 1.69892
0.571708 0.237305 1.63379
0.577148 0.242794 1.63379
0.799634 0.231445 1.77441
0.793945 0.231445 1.77982
0.800211 0.231445 1.77441
0.799805 0.232105 1.77441
0.810661 0.231445 1.77441
0.805664 0.235036 1.77441
0.805664 0.231445 1.77611
0.827781 0.231445 1.77441
0.829102 0.234185 1.77441
0.829102 0.231445 1.77489
0.834961 0.231445 1.77767
0.858376 0.231445 1.77441
0.858398 0.23147 1.77441
0.858398 0.231445 1.77446
0.893555 0.231445 1.77514
0.789015 0.237305 1.78027
0.788086 0.24189 1.78027
0.788086 0.237305 1.78282
0.843301 0.237305 1.78027
0.850282 0.237305 1.78027
0.84668 0.241401 1.78027
0.84668 0.237305 1.7827
0.854 0.237305 1.78027
0.852539 0.240745 1.78027
0.858398 0.237305 1.78342
0.864258 0.237305 1.786
0.823242 0.225586 1.77369
0.886708 0.225586 1.76855
0.887695 0.225901 1.76855
0.758789 0.243164 1.78457
0.787943 0.243164 1.78027
0.849576 0.243164 1.78027
0.852539 0.243164 1.78152
0.858398 0.243164 1.78408
0.536133 0.249272 1.68652
0.582751 0.243164 1.63965
0.583008 0.243425 1.63965
0.583008 0.243164 1.63979
0.442117 0.225586 1.68066
0.541094 0.225586 1.68066
0.542234 0.225586 1.68066
0.541992 0.226043 1.68066
0.541992 0.225586 1.68149
0.483398 0.255916 1.68066
0.489258 0.257658 1.68066
0.529875 0.254883 1.68066
0.531464 0.254883 1.68066
0.536133 0.254883 1.68161
0.439026 0.231445 1.68652
0.56543 0.254883 1.66297
0.565847 0.225586 1.63379
0.571289 0.225586 1.63954
0.59325 0.249023 1.65137
0.597505 0.249023 1.65137
0.594727 0.250425 1.65137
0.594727 0.249023 1.65586
0.579058 0.231445 1.64551
0.770508 0.249023 1.78568
0.776367 0.249023 1.78474
0.783092 0.249023 1.78027
0.782227 0.249023 1.78126
0.788086 0.253752 1.78027
0.851705 0.249023 1.78027
0.852539 0.250832 1.78027
0.852539 0.249023 1.78107
0.858398 0.249023 1.7847
0.887695 0.249023 1.786
0.893555 0.253792 1.78027
0.93457 0.249023 1.78583
0.793945 0.254883 1.78009
0.799805 0.254883 1.77855
0.805664 0.258852 1.77441
0.805664 0.254883 1.77572
0.812117 0.254883 1.77441
0.811523 0.255219 1.77441
0.811523 0.254883 1.77465
0.849015 0.254883 1.77441
0.852539 0.254883 1.77809
0.893555 0.254883 1.7796
0.576997 0.237305 1.63965
0.577148 0.237459 1.63965
0.577148 0.237305 1.63987
0.540434 0.243164 1.7041
0.543701 0.243164 1.7041
0.541992 0.243164 1.70538
0.536133 0.251154 1.69238
0.536133 0.249023 1.69538
0.541992 0.249358 1.69238
0.541992 0.249023 1.6931
0.441407 0.225586 1.68652
0.585462 0.243164 1.64551
0.588867 0.247638 1.64551
0.483398 0.258986 1.68652
0.489258 0.258071 1.68652
0.495117 0.260374 1.68652
0.539709 0.254883 1.68652
0.541992 0.254883 1.68986
0.799805 0.231306 1.77441
0.805664 0.225586 1.78017
0.811523 0.230798 1.77441
0.811523 0.225586 1.77773
0.820794 0.225586 1.77441
0.817383 0.227467 1.77441
0.817383 0.225586 1.77589
0.825816 0.225586 1.77441
0.829102 0.225586 1.77561
0.834961 0.225586 1.77872
0.858398 0.23143 1.77441
0.885441 0.225586 1.77441
0.887695 0.230598 1.77441
0.893555 0.231068 1.77441
0.756569 0.243164 1.78613
0.761794 0.243164 1.78613
0.758789 0.247279 1.78613
0.764648 0.243164 1.791
0.770508 0.245978 1.78613
0.770508 0.243164 1.7868
0.776367 0.248087 1.78613
0.776367 0.243164 1.78941
0.78417 0.243164 1.78613
0.782227 0.24574 1.78613
0.782227 0.243164 1.78764
0.8617 0.243164 1.78613
0.870117 0.243164 1.79122
0.875977 0.243164 1.78778
0.887695 0.248889 1.78613
0.922852 0.243164 1.78827
0.928711 0.243164 1.79104
0.934925 0.243164 1.78613
0.93457 0.245964 1.78613
0.758789 0.241535 1.78613
0.786551 0.237305 1.78613
0.782227 0.237305 1.78907
0.86444 0.237305 1.78613
0.864258 0.237677 1.78613
0.864258 0.237305 1.78759
0.875977 0.237305 1.78835
0.928711 0.23812 1.78613
0.793137 0.231445 1.78027
0.788086 0.231445 1.7836
0.838359 0.231445 1.78027
0.84082 0.234571 1.78027
0.84082 0.231445 1.78233
0.84668 0.231445 1.78525
0.852539 0.235265 1.78027
0.852539 0.231445 1.78394
0.891 0.231445 1.78027
0.887695 0.231445 1.78509
0.896484 0.231445 1.78027
0.893555 0.232727 1.78027
0.899414 0.231445 1.78185
0.905273 0.231445 1.78464
0.571336 0.225586 1.63965
0.56543 0.255364 1.66309
0.56543 0.254883 1.66373
0.56543 0.249023 1.66298
0.581099 0.231445 1.65137
0.583008 0.231445 1.65344
0.442475 0.237305 1.72168
0.442383 0.241189 1.72168
0.581089 0.237305 1.64551
0.583008 0.238217 1.64551
0.541992 0.248293 1.70996
0.441653 0.225586 1.69238
0.442383 0.225586 1.69569
0.489258 0.225586 1.69457
0.495117 0.225586 1.69457
0.500977 0.225586 1.69427
0.506836 0.225586 1.69668
0.75293 0.256827 1.78027
0.758789 0.254883 1.78442
0.770508 0.254883 1.78578
0.776367 0.254883 1.78561
0.782227 0.254883 1.78371
0.792305 0.254883 1.78027
0.788086 0.254883 1.78095
0.855776 0.254883 1.78027
0.858398 0.254883 1.78244
0.864258 0.254883 1.78582
0.892151 0.254883 1.78027
0.89459 0.254883 1.78027
0.93457 0.254883 1.78368
0.533079 0.249023 1.69824
0.536133 0.249023 1.70064
0.543487 0.249023 1.69824
0.541992 0.25249 1.69824
0.758789 0.25092 1.78613
0.769821 0.249023 1.78613
0.764648 0.249023 1.78908
0.861276 0.249023 1.78613
0.864258 0.254157 1.78613
0.864258 0.249023 1.78845
0.870117 0.249023 1.78859
0.875977 0.249023 1.78857
0.887522 0.249023 1.78613
0.881836 0.249023 1.78968
0.888472 0.249023 1.78613
0.887695 0.249788 1.78613
0.893555 0.254382 1.78613
0.893555 0.249023 1.78727
0.899414 0.249023 1.79024
0.922852 0.249023 1.78769
0.934181 0.249023 1.78613
0.928711 0.249023 1.79114
0.489258 0.259384 1.69238
0.544688 0.254883 1.69238
0.541992 0.254883 1.6969
0.584255 0.243164 1.65137
0.588867 0.246253 1.65137
0.588867 0.243164 1.65669
0.600586 0.247989 1.65137
0.573159 0.225586 1.64551
0.577148 0.229622 1.64551
0.577148 0.225586 1.65012
0.785644 0.231445 1.78613
0.855607 0.231445 1.78613
0.859309 0.231445 1.78613
0.858398 0.2331 1.78613
0.858398 0.231445 1.78754
0.887695 0.232272 1.78613
0.893555 0.234743 1.78613
0.899414 0.23493 1.78613
0.758789 0.2382 1.79199
0.764648 0.242148 1.79199
0.764648 0.237305 1.79541
0.770508 0.238639 1.79199
0.770508 0.237305 1.79361
0.776835 0.237305 1.79199
0.776367 0.237625 1.79199
0.776367 0.237305 1.79222
0.863911 0.237305 1.79199
0.864258 0.237305 1.79245
0.871523 0.237305 1.79199
0.870117 0.239807 1.79199
0.870117 0.237305 1.79324
0.893555 0.237305 1.79358
0.899414 0.237305 1.79311
0.925332 0.237305 1.79199
0.922852 0.240628 1.79199
0.922852 0.237305 1.79686
0.758789 0.248338 1.79199
0.86401 0.243164 1.79199
0.865698 0.243164 1.79199
0.864258 0.243826 1.79199
0.864258 0.243164 1.79227
0.893555 0.244189 1.79199
0.893555 0.243164 1.79337
0.911133 0.243164 1.79743
0.920319 0.243164 1.79199
0.916992 0.243164 1.79687
0.56543 0.249023 1.66364
0.600586 0.249023 1.66818
0.793945 0.231052 1.78027
0.793945 0.225586 1.78506
0.805236 0.225586 1.78027
0.799805 0.227041 1.78027
0.799805 0.225586 1.78174
0.837716 0.225586 1.78027
0.84082 0.225586 1.78233
0.84668 0.225586 1.78522
0.886198 0.225586 1.78027
0.887695 0.228324 1.78027
0.586499 0.231445 1.65723
0.442383 0.231445 1.71286
0.506836 0.231445 1.71052
0.58183 0.237305 1.65137
0.583008 0.24063 1.65137
0.583008 0.237305 1.65262
0.442895 0.225586 1.69824
0.442383 0.227659 1.69824
0.442383 0.225586 1.7017
0.483992 0.225586 1.69824
0.483398 0.225586 1.69896
0.540195 0.249023 1.7041
0.536133 0.253091 1.7041
0.544233 0.249023 1.7041
0.489258 0.260062 1.69824
0.534221 0.254883 1.69824
0.540593 0.254883 1.69824
0.541992 0.254883 1.69956
0.7566 0.254883 1.78613
0.75293 0.256703 1.78613
0.76146 0.254883 1.78613
0.758789 0.260428 1.78613
0.769808 0.254883 1.78613
0.764648 0.254883 1.78779
0.770508 0.256174 1.78613
0.776367 0.259946 1.78613
0.782227 0.260243 1.78613
0.865024 0.254883 1.78613
0.864258 0.256186 1.78613
0.870117 0.254883 1.78765
0.875977 0.254883 1.78762
0.881836 0.254883 1.79006
0.893062 0.254883 1.78613
0.887695 0.254883 1.78772
0.893918 0.254883 1.78613
0.899414 0.254883 1.78681
0.905273 0.254883 1.78953
0.911133 0.254883 1.7906
0.916992 0.254883 1.79087
0.922852 0.254883 1.79045
0.929346 0.254883 1.78613
0.928711 0.254883 1.78663
0.577898 0.225586 1.65137
0.56543 0.243164 1.663
0.589329 0.243164 1.65723
0.594727 0.248598 1.65723
0.600586 0.246773 1.65723
0.759509 0.249023 1.79199
0.758789 0.251046 1.79199
0.758789 0.249023 1.79252
0.902663 0.249023 1.79199
0.905273 0.251834 1.79199
0.905273 0.249023 1.7954
0.911133 0.252926 1.79199
0.911133 0.249023 1.79438
0.919925 0.249023 1.79199
0.916992 0.253811 1.79199
0.916992 0.249023 1.79629
0.600163 0.249023 1.66895
0.600586 0.249594 1.66895
0.600586 0.249023 1.67159
0.606445 0.249588 1.66895
0.606445 0.249023 1.67117
0.430664 0.231445 1.7215
0.443493 0.231445 1.71582
0.442383 0.231445 1.72124
0.50522 0.231445 1.71582
0.506836 0.231445 1.71849
0.588633 0.231445 1.66309
0.588867 0.231897 1.66309
0.588867 0.231445 1.6638
0.764648 0.231445 1.79756
0.776367 0.231445 1.79417
0.782649 0.231445 1.79199
0.782227 0.232355 1.79199
0.782227 0.231445 1.7925
0.864258 0.235862 1.79199
0.875977 0.234798 1.79199
0.893555 0.236053 1.79199
0.899414 0.236394 1.79199
0.776367 0.225586 1.79138
0.782227 0.225586 1.78899
0.791518 0.225586 1.78613
0.788086 0.228395 1.78613
0.788086 0.225586 1.78746
0.850591 0.225586 1.78613
0.852539 0.22648 1.78613
0.852539 0.225586 1.78658
0.858398 0.225586 1.78982
0.887695 0.225586 1.78941
0.418945 0.225586 1.70718
0.440836 0.225586 1.7041
0.436523 0.225586 1.70593
0.442383 0.225586 1.70605
0.483398 0.227907 1.7041
0.587191 0.237305 1.65723
0.588867 0.242226 1.65723
0.588867 0.237305 1.66002
0.541049 0.249023 1.70996
0.54744 0.249023 1.70996
0.541992 0.249023 1.71199
0.547852 0.249638 1.70996
0.580568 0.225586 1.65723
0.583008 0.227917 1.65723
0.536133 0.254883 1.70697
0.545062 0.254883 1.7041
0.547852 0.254883 1.70895
0.56543 0.243164 1.66353
0.594404 0.243164 1.66309
0.594727 0.24338 1.66309
0.594727 0.243164 1.66412
0.600586 0.245339 1.66309
0.430963 0.231445 1.72168
0.442118 0.231445 1.72168
0.442383 0.233978 1.72168
0.508873 0.231445 1.72168
0.590469 0.231445 1.66895
0.594727 0.231445 1.67206
0.767501 0.231445 1.79785
0.770967 0.231445 1.79785
0.770508 0.231989 1.79785
0.770508 0.231445 1.79812
0.774608 0.225586 1.79199
0.776367 0.227286 1.79199
0.782227 0.230714 1.79199
0.888824 0.225586 1.79199
0.591522 0.237305 1.66309
0.547852 0.25253 1.71582
0.42438 0.225586 1.70996
0.418945 0.228553 1.70996
0.418945 0.225586 1.71326
0.424805 0.225586 1.7105
0.43241 0.225586 1.70996
0.430664 0.225586 1.71272
0.44094 0.225586 1.70996
0.443457 0.225586 1.70996
0.442383 0.227862 1.70996
0.442383 0.225586 1.71305
0.506836 0.225586 1.71116
0.582498 0.225586 1.66309
0.583008 0.226073 1.66309
0.583008 0.225586 1.66345
0.538828 0.254883 1.70996
0.541992 0.254883 1.71552
0.548759 0.254883 1.70996
0.598099 0.243164 1.66895
0.600586 0.243164 1.67022
0.598475 0.231445 1.6748
0.600586 0.235309 1.6748
0.600586 0.231445 1.67709
0.435762 0.231445 1.72754
0.436523 0.231445 1.72953
0.495117 0.231445 1.72813
0.500977 0.231445 1.72839
0.506978 0.231445 1.72754
0.506836 0.231445 1.72793
0.489258 0.249023 1.72571
0.421893 0.225586 1.71582
0.430664 0.226989 1.71582
0.436523 0.227551 1.71582
0.442383 0.227676 1.71582
0.483398 0.225586 1.7192
0.489258 0.225586 1.71856
0.503241 0.225586 1.71582
0.593342 0.237305 1.66895
0.594727 0.24012 1.66895
0.594727 0.237305 1.67045
0.600586 0.237305 1.67183
0.58799 0.225586 1.66895
0.588867 0.228175 1.66895
0.588867 0.225586 1.67041
0.594727 0.225586 1.67379
0.542531 0.254883 1.71582
0.541992 0.255426 1.71582
0.54914 0.254883 1.71582
0.547852 0.254883 1.7186
0.421832 0.225586 1.72168
0.436523 0.229065 1.72168
0.491166 0.225586 1.72168
0.503063 0.225586 1.72168
0.506836 0.229462 1.72168
0.596488 0.225586 1.6748
0.600586 0.225586 1.67966
0.547852 0.260153 1.72168
0.430664 0.231445 1.75422
0.606445 0.225586 1.68145
0.422865 0.225586 1.72754
0.436523 0.23066 1.72754
0.494742 0.225586 1.72754
0.495117 0.225586 1.72775
0.501496 0.225586 1.72754
0.500977 0.225586 1.72836
0.506836 0.231185 1.72754
0.415965 0.225586 1.7334
0.421048 0.225586 1.7334
0.424805 0.225586 1.7389
0.430664 0.225586 1.73903
0.605222 0.225586 1.68652
0.606445 0.226272 1.68652
0.606445 0.225586 1.68871
0.432636 0.231445 1.75684
0.430664 0.232698 1.75684
0.424805 0.225586 1.74274
0.430892 0.225586 1.73926
0.430664 0.225815 1.73926
0.430664 0.225586 1.74006
0.43131 0.231445 1.7627
0.430664 0.231445 1.76587
0.424255 0.225586 1.74512
0.418945 0.225586 1.74647
0.430119 0.231445 1.76855
0.428787 0.231445 1.77441
0.430664 0.225586 1.75417
0.436523 0.225586 1.75547
0.430664 0.231445 1.78428
0.428157 0.225586 1.75684
0.424805 0.228995 1.75684
0.424805 0.225586 1.75855
0.437973 0.225586 1.75684
0.436523 0.227471 1.75684
0.432113 0.231445 1.78613
0.421971 0.225586 1.7627
0.437243 0.225586 1.7627
0.436523 0.226297 1.7627
0.436523 0.225586 1.76572
0.430921 0.231445 1.79199
0.430664 0.231445 1.79325
0.422494 0.225586 1.76855
0.434682 0.225586 1.76855
0.430664 0.229864 1.76855
0.433793 0.225586 1.77441
0.430664 0.228656 1.77441
0.432049 0.225586 1.78027
0.430664 0.226945 1.78027
0.43272 0.225586 1.78613
0.430974 0.225586 1.79199
0.430664 0.225586 1.79303
-0.561622 0.260742 0.959961
0.0498047 0.294736 0.579102
-0.618164 0.28418 1.07013
0.0380859 0.272461 0.595988
-0.624023 0.290039 1.07287
-0.618164 0.290039 1.07144
-0.612305 0.290039 1.07401
-0.606445 0.290039 1.07619
-0.600586 0.290039 1.07646
0.0380859 0.288316 0.59082
0.0439453 0.287102 0.59082
-0.624023 0.27832 1.0708
-0.618164 0.27832 1.06944
-0.612305 0.27832 1.06991
-0.606445 0.27832 1.06805
0.0380859 0.290039 0.588829
0.0439453 0.29217 0.584961
0.0439453 0.290039 0.587034
0.00157011 0.28418 0.625977
-0.00292969 0.28418 0.629543
-0.00878906 0.290039 0.630443
-0.00268662 0.290039 0.625977
-0.00292969 0.290363 0.625977
-0.00292969 0.290039 0.626209
-0.621352 0.28418 1.07129
-0.624023 0.28418 1.07215
-0.615097 0.28418 1.07129
-0.618164 0.289521 1.07129
-0.612305 0.28418 1.07233
-0.606445 0.28418 1.07291
-0.600586 0.28418 1.07601
-0.629883 0.266602 1.07519
0.000846982 0.266602 0.631836
0.0263672 0.282449 0.602539
0.0263672 0.27832 0.606056
0.0322266 0.283327 0.602539
0.0322266 0.27832 0.60615
0.0380859 0.27832 0.60292
0.0373025 0.272461 0.59668
0.0380859 0.273341 0.59668
-0.629883 0.272461 1.07505
-0.624023 0.276752 1.07129
-0.618164 0.277849 1.07129
-0.612305 0.277926 1.07129
-0.606445 0.275822 1.07129
0.0340822 0.260742 0.59668
0.0322266 0.260742 0.598979
0.0263672 0.28418 0.601505
0.0322266 0.286197 0.59668
0.0322266 0.28418 0.601398
0.0380859 0.28562 0.59668
-0.0018878 0.27832 0.631836
-0.00292969 0.280218 0.631836
-0.00292969 0.27832 0.633326
0.0349362 0.290039 0.59082
0.0322266 0.291754 0.59082
0.0322266 0.290039 0.592498
-0.000750065 0.272461 0.631836
-0.00292969 0.272461 0.635622
-0.598407 0.290039 1.07715
-0.600586 0.292127 1.07715
-0.594727 0.290039 1.07905
-0.588867 0.290039 1.08053
0.0263672 0.266602 0.607713
0.0322266 0.266602 0.606023
-0.624625 0.27832 1.07129
-0.629883 0.27832 1.07544
-0.624023 0.281178 1.07129
-0.612305 0.281701 1.07129
-0.601756 0.27832 1.07129
-0.606445 0.282362 1.07129
-0.600586 0.27832 1.07391
0.00227582 0.260742 0.637695
-0.00491929 0.28418 0.631836
-0.00878906 0.288263 0.631836
-0.00878906 0.28418 0.635764
-0.0099436 0.290039 0.631836
-0.635742 0.28418 1.08003
-0.628719 0.28418 1.07715
-0.629883 0.28599 1.07715
-0.629883 0.28418 1.07776
-0.599366 0.28418 1.07715
-0.594727 0.28418 1.08074
-0.588867 0.28418 1.08156
-0.629883 0.260742 1.0755
-0.633368 0.266602 1.07715
-0.635742 0.270093 1.07715
-0.635742 0.266602 1.07825
-0.629274 0.266602 1.07715
0.0228233 0.27832 0.608398
0.0205078 0.280738 0.608398
0.0205078 0.27832 0.610444
-0.00164449 0.266602 0.637695
-0.00292969 0.269218 0.637695
-0.00292969 0.266602 0.639776
-0.635742 0.273822 1.07715
-0.627377 0.272461 1.07715
-0.624023 0.275191 1.07715
-0.618164 0.277052 1.07715
-0.612305 0.27628 1.07715
-0.606445 0.273084 1.07715
-0.600586 0.277668 1.07715
0.0246613 0.28418 0.602539
0.0205078 0.28418 0.606186
0.0347662 0.28418 0.602539
0.0380859 0.284534 0.602539
0.0380859 0.28418 0.603542
0.0289742 0.260742 0.602539
0.0263672 0.260742 0.605249
0.0322266 0.262243 0.602539
0.0263672 0.275237 0.608398
0.0322266 0.27609 0.608398
0.0322266 0.272461 0.612562
-0.513914 0.260742 0.860352
0.0249251 0.266602 0.608398
0.0205078 0.266602 0.61376
0.0263672 0.269236 0.608398
0.0322266 0.270961 0.608398
0.0284567 0.290039 0.59668
0.0263672 0.29199 0.59668
0.0263672 0.290039 0.599362
-0.00431597 0.272461 0.637695
-0.00518441 0.27832 0.637695
-0.00878906 0.28243 0.637695
-0.00878906 0.27832 0.642245
-0.00158644 0.260742 0.643555
-0.00292969 0.262723 0.643555
-0.00292969 0.260742 0.645322
-0.632925 0.27832 1.07715
-0.635742 0.27832 1.07926
-0.629883 0.282449 1.07715
-0.599506 0.27832 1.07715
-0.600586 0.27832 1.07865
-0.588867 0.27832 1.08285
-0.512695 0.294884 0.854492
-0.635577 0.290039 1.08301
-0.635742 0.290039 1.08319
-0.586402 0.290039 1.08301
-0.583008 0.294041 1.08301
-0.583008 0.290039 1.08634
-0.571289 0.290039 1.08779
-0.56543 0.290039 1.08619
-0.010756 0.28418 0.637695
-0.0146484 0.28418 0.642457
-0.342773 0.27832 0.870285
-0.0140684 0.290039 0.637695
-0.0146484 0.290646 0.637695
-0.0146484 0.290039 0.63821
-0.518555 0.266602 0.877564
-0.635742 0.264184 1.07715
-0.629365 0.260742 1.07715
0.0234592 0.260742 0.608398
0.0205078 0.260742 0.612513
0.0167474 0.27832 0.614258
0.0146484 0.280142 0.614258
0.0146484 0.27832 0.616359
0.016234 0.28418 0.608398
0.0146484 0.28418 0.60949
-0.62834 0.272461 1.08301
-0.629883 0.272461 1.08491
-0.624023 0.277177 1.08301
-0.618164 0.276199 1.08301
-0.612305 0.274619 1.08301
-0.606445 0.273184 1.08301
-0.588867 0.278273 1.08301
-0.635742 0.289753 1.08301
-0.587679 0.28418 1.08301
-0.571289 0.28418 1.08873
-0.342773 0.272461 0.869743
-0.524414 0.283277 0.87207
-0.00474274 0.266602 0.643555
-0.628998 0.266602 1.08301
-0.629883 0.266602 1.08423
-0.342773 0.266602 0.870158
0.0146484 0.272461 0.618713
0.0205078 0.273878 0.614258
0.0205078 0.272461 0.615103
0.0301298 0.272461 0.614258
0.0263672 0.274025 0.614258
0.0263672 0.272461 0.615158
-0.512753 0.260742 0.866211
0.01976 0.266602 0.614258
0.0146484 0.266602 0.617355
0.0205078 0.268653 0.614258
0.0263672 0.271421 0.614258
-0.0076642 0.272461 0.643555
-0.00878906 0.275728 0.643555
-0.00878906 0.272461 0.645527
0.0227742 0.290039 0.602539
0.0205078 0.291742 0.602539
0.0205078 0.290039 0.604691
-0.0100807 0.27832 0.643555
-0.0146484 0.28324 0.643555
-0.518555 0.294487 0.860352
-0.624023 0.27832 1.08738
-0.602702 0.27832 1.08301
-0.600586 0.281182 1.08301
-0.600586 0.27832 1.08572
-0.590191 0.27832 1.08301
-0.594727 0.27968 1.08301
-0.594727 0.27832 1.08402
-0.588729 0.27832 1.08301
-0.588867 0.27832 1.08325
-0.0048759 0.260742 0.649414
-0.0151471 0.28418 0.643555
-0.342371 0.27832 0.87207
-0.522814 0.28418 0.87207
-0.524414 0.286314 0.87207
-0.518555 0.289784 0.87207
-0.578813 0.290039 1.08887
-0.57488 0.290039 1.08887
-0.577148 0.290039 1.08948
-0.571289 0.292101 1.08887
0.0104239 0.28418 0.614258
0.00878906 0.28418 0.616029
-0.0181236 0.290039 0.643555
-0.0205078 0.295138 0.643555
-0.0205078 0.290039 0.648682
0.01864 0.260742 0.614258
0.0146484 0.260742 0.618406
-0.628636 0.260742 1.08301
-0.629883 0.260742 1.08471
-0.341833 0.28418 0.87793
-0.524414 0.270414 0.87793
-0.518359 0.266602 0.87793
-0.518555 0.266773 0.87793
-0.518555 0.266602 0.878105
0.0108982 0.27832 0.620117
0.00878906 0.280294 0.620117
0.00878906 0.27832 0.622156
-0.58388 0.28418 1.08887
-0.583008 0.285565 1.08887
-0.583008 0.28418 1.09097
-0.571811 0.28418 1.08887
-0.577148 0.28418 1.08957
-0.570744 0.28418 1.08887
-0.56543 0.285305 1.08887
-0.56543 0.28418 1.09401
-0.633538 0.272461 1.08887
-0.629883 0.27586 1.08887
-0.618164 0.275891 1.08887
-0.612305 0.273086 1.08887
-0.606445 0.277028 1.08887
-0.600586 0.273783 1.08887
-0.594727 0.277015 1.08887
-0.524414 0.283034 0.87793
-0.339559 0.272461 0.87207
-0.336914 0.272461 0.87583
-0.633339 0.266602 1.08887
-0.00743079 0.266602 0.649414
-0.00878906 0.268701 0.649414
-0.00878906 0.266602 0.65214
-0.337127 0.266602 0.87207
-0.517869 0.260742 0.87207
-0.518555 0.26208 0.87207
-0.518555 0.260742 0.873216
0.0109613 0.266602 0.620117
0.00878906 0.266602 0.622145
0.0124301 0.272461 0.620117
0.00878906 0.272461 0.622312
0.00878906 0.295298 0.608398
0.0160129 0.290039 0.608398
0.0146484 0.291038 0.608398
0.0146484 0.290039 0.609286
-0.526628 0.272461 0.889648
-0.530273 0.276052 0.889648
-0.0103552 0.272461 0.649414
-0.518555 0.290039 0.871954
-0.341593 0.27832 0.87793
-0.0142994 0.27832 0.649414
-0.0146484 0.278748 0.649414
-0.0146484 0.27832 0.650358
-0.00689459 0.260742 0.655273
-0.00878906 0.264564 0.655273
-0.0171809 0.28418 0.649414
-0.0205078 0.289657 0.649414
0.00563443 0.28418 0.620117
0.00292969 0.28418 0.624405
-0.523358 0.28418 0.87793
-0.524414 0.28418 0.87976
0.0133259 0.260742 0.620117
-0.624802 0.27832 1.08887
-0.629883 0.27832 1.09148
-0.623346 0.27832 1.08887
-0.624023 0.279024 1.08887
-0.592301 0.27832 1.08887
-0.588867 0.281276 1.08887
-0.571289 0.284141 1.08887
-0.341072 0.28418 0.883789
-0.342773 0.28418 0.886922
-0.633236 0.260742 1.08887
-0.0209396 0.290039 0.649414
-0.530273 0.279077 0.883789
-0.336737 0.272461 0.87793
-0.336914 0.272668 0.87793
-0.336914 0.272461 0.878254
-0.634837 0.266602 1.09473
-0.635742 0.266602 1.09595
0.00465 0.27832 0.625977
0.00292969 0.281586 0.625977
0.00292969 0.27832 0.627212
-0.336914 0.272153 0.87793
-0.565286 0.28418 1.09473
-0.56543 0.28418 1.09502
-0.521341 0.266602 0.883789
-0.524414 0.270356 0.883789
-0.524414 0.266602 0.888055
-0.00973308 0.266602 0.655273
-0.635508 0.272461 1.09473
-0.635742 0.272461 1.09504
-0.618164 0.27501 1.09473
-0.612305 0.275837 1.09473
-0.606445 0.274112 1.09473
-0.606445 0.272461 1.09595
-0.600586 0.27369 1.09473
-0.594727 0.277479 1.09473
0.00347781 0.272461 0.625977
0.00292969 0.272461 0.626374
0.00414121 0.266602 0.625977
0.00292969 0.266602 0.627147
-0.341167 0.27832 0.883789
-0.345786 0.290039 0.889648
-0.520148 0.260742 0.87793
-0.518555 0.266297 0.87793
0.0091033 0.290039 0.614258
0.00878906 0.290347 0.614258
0.00878906 0.290039 0.614442
-0.518935 0.290039 0.87207
-0.524414 0.290039 0.874365
-0.518499 0.290039 0.87207
-0.518555 0.29045 0.87207
-0.518555 0.290039 0.872265
-0.0119765 0.272461 0.655273
-0.0146484 0.276648 0.655273
-0.0146484 0.272461 0.660017
-0.525299 0.272461 0.895508
-0.524414 0.2749 0.895508
-0.00826705 0.260742 0.661133
-0.00878906 0.26158 0.661133
-0.00878906 0.260742 0.663697
-0.0156342 0.27832 0.655273
-0.0173742 0.28418 0.655273
-0.0205078 0.288167 0.655273
-0.526242 0.28418 0.883789
-0.524414 0.287435 0.883789
-0.634745 0.260742 1.09473
-0.635742 0.260742 1.09601
-0.344828 0.28418 0.889648
0.00925148 0.260742 0.625977
0.00878906 0.261578 0.625977
0.00878906 0.260742 0.626772
-0.0245669 0.290039 0.655273
-0.0263672 0.291966 0.655273
-0.0263672 0.290039 0.657721
-0.559659 0.290039 1.10645
-0.530273 0.28064 0.889648
-0.530273 0.27832 0.892118
-0.524414 0.27832 0.892883
-0.638291 0.266602 1.10059
-0.606445 0.270687 1.10059
-0.632627 0.27832 1.09473
-0.635742 0.27832 1.09808
-0.629883 0.2809 1.09473
-0.622318 0.27832 1.09473
-0.624023 0.279696 1.09473
-0.591719 0.27832 1.09473
-0.588867 0.280632 1.09473
-0.583008 0.283812 1.09473
-0.577148 0.281791 1.09473
-0.571289 0.2828 1.09473
-0.56543 0.284142 1.09473
-0.0118755 0.266602 0.661133
-0.0146484 0.271517 0.661133
-0.340546 0.272461 0.883789
-0.635742 0.28418 1.104
-0.567382 0.28418 1.10059
-0.56543 0.285022 1.10059
-0.525892 0.266602 0.889648
-0.524414 0.266602 0.894086
-0.340668 0.27832 0.889648
-0.342773 0.281891 0.889648
-0.342773 0.27832 0.893276
-0.520022 0.260742 0.883789
-0.638505 0.272461 1.10059
-0.618164 0.275391 1.10059
-0.60902 0.272461 1.10059
-0.612305 0.275735 1.10059
-0.603857 0.272461 1.10059
-0.606445 0.272461 1.10275
-0.600586 0.275846 1.10059
-0.594727 0.277564 1.10059
-0.342773 0.270458 0.889648
-0.345836 0.290039 0.895508
-0.348633 0.294495 0.895508
-0.348633 0.290039 0.899137
0.00359476 0.290039 0.620117
0.00292969 0.291499 0.620117
0.00292969 0.290039 0.620918
-0.529232 0.272461 0.901367
-0.530273 0.272461 0.905275
-0.00937402 0.260742 0.666992
-0.521865 0.290039 0.87793
-0.518555 0.2948 0.87793
-0.017614 0.27832 0.661133
-0.0151021 0.272461 0.661133
-0.0263672 0.28912 0.661133
-0.0200028 0.28418 0.661133
-0.0205078 0.284835 0.661133
-0.0205078 0.28418 0.662951
-0.345609 0.28418 0.895508
-0.527084 0.28418 0.889648
-0.638246 0.260742 1.10059
-0.639536 0.266602 1.10645
-0.341145 0.272461 0.889648
-0.342773 0.272461 0.893798
0.00587118 0.260742 0.631836
0.00292969 0.263703 0.631836
0.00292969 0.260742 0.636694
-0.562163 0.290039 1.1123
-0.56543 0.290039 1.11608
-0.0277944 0.290039 0.661133
-0.0322266 0.294554 0.661133
-0.0263672 0.290039 0.663295
-0.0133976 0.266602 0.666992
-0.0146484 0.268861 0.666992
-0.524069 0.266602 0.895508
-0.524414 0.270076 0.895508
-0.524414 0.266602 0.895952
-0.524094 0.27832 0.895508
-0.524414 0.279459 0.895508
-0.524414 0.27832 0.895922
-0.638624 0.28418 1.10645
-0.641602 0.28418 1.10918
-0.633178 0.28418 1.10645
-0.635742 0.286619 1.10645
-0.569154 0.28418 1.10645
-0.571289 0.28418 1.10929
-0.56543 0.285887 1.10645
-0.637928 0.27832 1.10059
-0.635742 0.280346 1.10059
-0.629883 0.280499 1.10059
-0.621097 0.27832 1.10059
-0.624023 0.280682 1.10059
-0.624023 0.27832 1.10294
-0.600586 0.27832 1.10376
-0.59346 0.27832 1.10059
-0.594727 0.27832 1.10198
-0.588867 0.282333 1.10059
-0.583008 0.282906 1.10059
-0.577148 0.281984 1.10059
-0.571289 0.282761 1.10059
-0.344564 0.27832 0.895508
-0.519708 0.260742 0.889648
-0.524414 0.264855 0.889648
-0.524414 0.260742 0.895426
-0.354492 0.260742 0.920858
-0.348633 0.260742 0.922087
-0.639768 0.272461 1.10645
-0.641602 0.272461 1.10823
-0.624023 0.275371 1.10645
-0.618164 0.275332 1.10645
-0.612305 0.275345 1.10645
-0.606445 0.275508 1.10645
-0.350581 0.290039 0.901367
-0.52349 0.290039 0.883789
-0.524414 0.290039 0.886029
-0.0107213 0.260742 0.672852
-0.0162981 0.272461 0.666992
-0.34552 0.28418 0.901367
-0.348633 0.288072 0.901367
-0.348633 0.28418 0.905348
-0.531079 0.272461 0.907227
-0.530273 0.277028 0.907227
-0.639473 0.260742 1.10645
-0.0191532 0.27832 0.666992
-0.0205078 0.281278 0.666992
-0.0205078 0.27832 0.672142
-0.52846 0.28418 0.895508
-0.0216174 0.28418 0.666992
-0.0322266 0.294341 0.666992
-0.0228034 0.290039 0.666992
-0.0263672 0.291696 0.666992
-0.0143005 0.266602 0.672852
-0.0146484 0.267227 0.672852
-0.529119 0.266602 0.901367
-0.566979 0.290039 1.11816
-0.571289 0.290039 1.12035
-0.56543 0.290766 1.11816
-0.528489 0.27832 0.901367
-0.345809 0.27832 0.901367
-0.348633 0.274 0.901367
-0.644243 0.28418 1.1123
-0.641602 0.287002 1.1123
-0.633736 0.28418 1.1123
-0.635742 0.28626 1.1123
-0.594727 0.28418 1.11565
-0.573124 0.28418 1.1123
-0.577148 0.28418 1.11667
-0.571289 0.285131 1.1123
-0.56543 0.289116 1.1123
-0.526039 0.260742 0.895508
-0.524414 0.261297 0.895508
-0.354492 0.265568 0.924805
-0.347575 0.260742 0.924805
-0.348633 0.261896 0.924805
-0.528766 0.290039 0.889648
-0.644329 0.272461 1.1123
-0.624023 0.276338 1.1123
-0.618164 0.277608 1.1123
-0.612305 0.274864 1.1123
-0.606445 0.276605 1.1123
-0.638624 0.27832 1.10645
-0.641602 0.27832 1.10959
-0.627088 0.27832 1.10645
-0.629883 0.280963 1.10645
-0.602531 0.27832 1.10645
-0.600586 0.280326 1.10645
-0.594727 0.281124 1.10645
-0.588867 0.283933 1.10645
-0.583008 0.282417 1.10645
-0.577148 0.28279 1.10645
-0.571289 0.283345 1.10645
-0.012689 0.260742 0.678711
-0.0232871 0.28418 0.672852
-0.528663 0.28418 0.901367
-0.530273 0.28418 0.905394
-0.534143 0.272461 0.913086
-0.018128 0.272461 0.672852
-0.0205078 0.277876 0.672852
-0.0206778 0.27832 0.672852
-0.529858 0.266602 0.907227
-0.530273 0.26959 0.907227
-0.530273 0.266602 0.90766
-0.354492 0.274655 0.907227
-0.348633 0.274805 0.907227
-0.0322266 0.293666 0.672852
-0.0260997 0.290039 0.672852
-0.0263672 0.290211 0.672852
-0.0263672 0.290039 0.673953
-0.0143731 0.266602 0.678711
-0.0146484 0.266973 0.678711
-0.0146484 0.266602 0.680162
-0.346414 0.27832 0.907227
-0.348633 0.28112 0.907227
-0.348633 0.27832 0.91095
-0.530159 0.27832 0.907227
-0.530273 0.279066 0.907227
-0.530273 0.27832 0.907347
-0.618164 0.290039 1.12911
-0.612305 0.290039 1.12726
-0.606445 0.291049 1.12402
-0.606445 0.290039 1.1247
-0.588867 0.293866 1.12402
-0.57506 0.290039 1.12402
-0.577148 0.295125 1.12402
-0.577148 0.290039 1.12539
-0.612305 0.28418 1.12247
-0.606445 0.28418 1.11991
-0.596635 0.28418 1.11816
-0.600586 0.28418 1.11978
-0.590864 0.28418 1.11816
-0.594727 0.285545 1.11816
-0.588867 0.28418 1.11971
-0.578613 0.28418 1.11816
-0.577148 0.28493 1.11816
-0.571289 0.288426 1.11816
-0.529302 0.260742 0.901367
-0.530273 0.260742 0.904066
-0.5293 0.290039 0.895508
-0.618164 0.276336 1.11816
-0.612305 0.278095 1.11816
-0.354492 0.2679 0.924805
-0.354492 0.266602 0.925317
-0.348315 0.260742 0.930664
-0.348633 0.261095 0.930664
-0.0142173 0.260742 0.68457
-0.0146484 0.262333 0.68457
-0.0146484 0.260742 0.686133
-0.0246446 0.28418 0.678711
-0.0263672 0.288098 0.678711
-0.0263672 0.28418 0.683948
-0.625996 0.27832 1.1123
-0.629883 0.281109 1.1123
-0.624023 0.27832 1.11452
-0.604976 0.27832 1.1123
-0.606445 0.27832 1.11383
-0.600586 0.282262 1.1123
-0.594727 0.282954 1.1123
-0.588867 0.284077 1.1123
-0.583008 0.282794 1.1123
-0.577148 0.282489 1.1123
-0.350467 0.28418 0.918945
-0.354492 0.287382 0.918945
-0.531427 0.28418 0.907227
-0.535264 0.272461 0.918945
-0.536133 0.272461 0.919822
-0.354492 0.27705 0.913086
-0.022169 0.27832 0.678711
-0.018957 0.272461 0.678711
-0.0205078 0.275576 0.678711
-0.534562 0.266602 0.913086
-0.352612 0.27832 0.913086
-0.533852 0.27832 0.913086
-0.0158062 0.266602 0.68457
-0.0273783 0.290039 0.678711
-0.61385 0.28418 1.12402
-0.618164 0.28418 1.12949
-0.612305 0.285953 1.12402
-0.606445 0.289273 1.12402
-0.594727 0.288869 1.12402
-0.583147 0.28418 1.12402
-0.588867 0.286366 1.12402
-0.582963 0.28418 1.12402
-0.583008 0.28418 1.1241
-0.577148 0.288716 1.12402
-0.532193 0.260742 0.907227
-0.530273 0.264714 0.907227
-0.618164 0.290851 1.12988
-0.588867 0.293224 1.12988
-0.588867 0.290039 1.13528
-0.581342 0.290039 1.12988
-0.583008 0.293491 1.12988
-0.528711 0.290039 0.901367
-0.530273 0.293312 0.901367
-0.530273 0.290039 0.904714
-0.354492 0.290039 0.935974
-0.348633 0.290039 0.934312
-0.342773 0.290039 0.930905
-0.351313 0.266602 0.930664
-0.354492 0.266602 0.936497
-0.354492 0.266589 0.936523
-0.346323 0.260742 0.936523
-0.348633 0.264806 0.936523
-0.0155953 0.260742 0.69043
-0.620461 0.27832 1.11816
-0.624023 0.280859 1.11816
-0.61211 0.27832 1.11816
-0.612305 0.27832 1.11839
-0.606445 0.28258 1.11816
-0.600586 0.282531 1.11816
-0.588867 0.283686 1.11816
-0.583008 0.283032 1.11816
-0.0266061 0.28418 0.68457
-0.53366 0.28418 0.913086
-0.0235987 0.27832 0.68457
-0.0263672 0.283769 0.68457
-0.351059 0.28418 0.924805
-0.354492 0.286437 0.924805
-0.348633 0.28418 0.930164
-0.342773 0.28418 0.929848
-0.354492 0.274658 0.918945
-0.354492 0.272461 0.921827
-0.539365 0.272461 0.924805
-0.541992 0.272461 0.927864
-0.0203786 0.272461 0.68457
-0.0205078 0.272676 0.68457
-0.0205078 0.272461 0.685409
-0.535028 0.27832 0.918945
-0.536133 0.27832 0.920006
-0.356654 0.27832 0.918945
-0.360352 0.27832 0.923103
-0.352589 0.27832 0.918945
-0.535575 0.266602 0.918945
-0.536133 0.266602 0.91948
-0.0180566 0.266602 0.69043
-0.0205078 0.271045 0.69043
-0.0287646 0.290039 0.68457
-0.0322266 0.295441 0.68457
-0.588867 0.285399 1.12988
-0.583008 0.287706 1.12988
-0.534041 0.260742 0.913086
-0.589552 0.290039 1.13574
-0.594727 0.292612 1.13574
-0.594727 0.290039 1.13767
-0.532291 0.290039 0.907227
-0.354506 0.266602 0.936523
-0.354492 0.266647 0.936523
-0.354492 0.266602 0.936582
-0.348633 0.26986 0.936523
-0.348633 0.266602 0.93765
-0.342773 0.27026 0.936523
-0.616466 0.27832 1.12402
-0.583008 0.284144 1.12402
-0.0283079 0.28418 0.69043
-0.0162827 0.260742 0.696289
-0.344586 0.260742 0.942383
-0.348633 0.260742 0.945303
-0.356188 0.290039 0.936523
