# .PCD v0.7 - Point Cloud Data file format
VERSION 0.7
FIELDS x y z normal_x normal_y normal_z
SIZE 4 4 4
TYPE F F F
COUNT 1 1 1
WIDTH 951
HEIGHT 1
VIEWPOINT 0 0 0 1 0 0 0
POINTS 951
DATA ascii
0.35341 0.29004 0.75488 -0.82913 -0.47662 0.29218
0.35449 0.29004 0.75679 -0.80786 -0.51614 0.28452
0.3574 0.28418 0.76074 -0.941 -0.16246 0.29686
0.35449 0.28035 0.76074 -0.85911 0.45607 0.23222
0.3572 0.29004 0.76074 -0.99433 0.031437 -0.1016
0.35449 0.29339 0.76074 -0.79465 -0.31515 0.51886
0.35787 0.29004 0.7666 -0.79799 -0.37343 0.47303
0.36035 0.29004 0.77022 -0.80086 -0.36397 0.47555
0.36201 0.29004 0.77246 -0.64051 -0.4722 0.60562
0.36035 0.29257 0.77246 -0.81915 -0.2604 0.51106
0.36621 0.29004 0.77708 -0.2901 -0.75504 0.58802
0.36621 0.29133 0.77832 -0.3055 -0.51732 0.79941
0.36035 0.31934 0.71767 -0.22661 0.39865 -0.88866
0.36621 0.31934 0.71565 -0.09501 0.62873 -0.7718
0.37207 0.31934 0.71436 0.47746 0.47746 -0.73761
0.26074 0.3252 0.72998 -0.55688 -0.04822 -0.82919
0.26843 0.3252 0.72559 -0.41608 0.83961 -0.34918
0.2666 0.3252 0.72859 -0.44056 0.64552 -0.62387
0.33459 0.3252 0.72559 0.2753 0.37412 -0.88557
0.33691 0.3252 0.72725 0.079154 0.51597 -0.85294
0.34754 0.3252 0.72559 -0.27814 0.80452 -0.52477
0.34277 0.3252 0.72755 -0.16177 0.63169 -0.75816
0.36035 0.31348 0.71766 -0.40504 -0.010729 -0.91424
0.37007 0.31348 0.71387 0.26168 0.2463 -0.9332
0.36621 0.31348 0.71576 -0.34324 0.11058 -0.93272
0.37207 0.31737 0.71387 0.60583 0.31919 -0.72876
0.36035 0.30762 0.71767 -0.42636 0.032883 -0.90395
0.3681 0.30762 0.71387 -0.17047 0.28381 -0.9436
0.36621 0.30762 0.71557 -0.55222 0.13503 -0.82269
0.36621 0.2959 0.71221 -0.56364 0.28621 -0.77485
0.30176 0.31934 0.72398 -0.16048 -0.70122 -0.69465
0.30762 0.31934 0.72298 0.15271 -0.62961 -0.76176
0.31348 0.31934 0.72391 0.32504 -0.62122 -0.71304
0.35683 0.31934 0.71973 -0.35316 0.022234 -0.9353
0.35449 0.31934 0.72134 -0.57604 -0.088856 -0.81258
0.36035 0.30176 0.71653 -0.4591 0.17981 -0.87
0.36728 0.30176 0.71387 -0.38444 0.070836 -0.92043
0.36621 0.30176 0.71454 -0.5685 0.10322 -0.81618
0.25953 0.3252 0.73145 -0.88796 -0.17304 -0.42613
0.3574 0.31348 0.71973 -0.54379 -0.019558 -0.83899
0.35449 0.31348 0.72208 -0.614 -0.050895 -0.78766
0.35769 0.30762 0.71973 -0.72508 -0.15392 -0.67124
0.35449 0.30762 0.72382 -0.64962 -0.35578 -0.67187
0.36347 0.2959 0.71387 -0.5053 0.21476 -0.83579
0.36035 0.2959 0.71669 -0.68163 -0.015385 -0.73153
0.36621 0.29994 0.71387 -0.53118 0.13546 -0.83636
0.26018 0.3252 0.7373 -0.48244 -0.84471 -0.23175
0.26074 0.3252 0.73774 -0.4576 -0.86914 -0.1876
0.27246 0.32336 0.72559 -0.35931 0.037861 -0.93245
0.27832 0.32185 0.72559 0.0985 -0.36497 -0.92579
0.28418 0.32146 0.72559 0.22394 -0.21241 -0.95117
0.28418 0.31934 0.7283 0.090512 -0.8006 -0.59233
0.29004 0.32256 0.72559 -0.37651 0.16791 -0.91107
0.29004 0.31934 0.72814 -0.18842 -0.75212 -0.63152
0.29741 0.31934 0.72559 -0.22566 -0.76909 -0.59797
0.2959 0.31987 0.72559 -0.29157 -0.66221 -0.69027
0.2959 0.31934 0.72626 -0.25364 -0.77296 -0.58155
0.31611 0.31934 0.72559 0.1881 -0.62078 -0.76109
0.31934 0.32132 0.72559 0.14793 -0.22544 -0.96296
0.31934 0.31934 0.72712 0.18388 -0.71075 -0.67899
0.3252 0.32111 0.72559 -0.053177 -0.40317 -0.91358
0.3252 0.31934 0.72772 -0.035158 -0.79834 -0.60118
0.33105 0.32208 0.72559 0.56206 -0.089286 -0.82226
0.33105 0.31934 0.72899 0.30442 -0.71386 -0.63066
0.33691 0.31934 0.73024 -0.049409 -0.50208 -0.86341
0.34277 0.31934 0.72833 -0.34617 -0.16253 -0.92399
0.34964 0.31934 0.72559 -0.54632 -0.13005 -0.82742
0.34863 0.32286 0.72559 -0.44709 0.40986 -0.79506
0.34863 0.31934 0.72629 -0.50429 -0.14535 -0.85121
0.35818 0.30176 0.71973 -0.91962 -0.018805 -0.39235
0.30176 0.31818 0.72559 -0.18118 -0.79682 -0.57641
0.30762 0.31702 0.72559 0.11114 -0.80009 -0.5895
0.31348 0.3182 0.72559 0.2656 -0.67846 -0.68495
0.35023 0.31348 0.72559 -0.66578 -0.15608 -0.72964
0.34863 0.31348 0.72721 -0.56864 -0.24397 -0.78558
0.35318 0.30762 0.72559 -0.72261 -0.35856 -0.59099
0.35892 0.2959 0.71973 -0.95496 -0.096024 -0.28076
0.25488 0.32811 0.74316 -0.8402 -0.4722 -0.26661
0.26556 0.3252 0.74316 -0.19634 -0.98006 0.030416
0.26074 0.32696 0.74316 -0.50504 -0.86215 -0.04039
0.2666 0.3252 0.74601 -0.23147 -0.97093 0.060986
0.35578 0.30176 0.72559 -0.77489 -0.2045 -0.5981
0.35449 0.30446 0.72559 -0.71337 -0.29871 -0.63394
0.35449 0.30176 0.72697 -0.73355 -0.22145 -0.64255
0.26074 0.32483 0.73145 -0.65416 -0.53828 -0.53134
0.2666 0.32455 0.73145 -0.4604 -0.55418 -0.69348
0.27246 0.32281 0.73145 -0.54942 -0.81644 -0.17767
0.2829 0.31934 0.73145 -0.14389 -0.91091 -0.38671
0.27832 0.32165 0.73145 -0.20229 -0.91191 -0.35708
0.28418 0.3185 0.73145 -0.1014 -0.91053 -0.40081
0.29004 0.31799 0.73145 -0.018546 -0.88407 -0.46698
0.2959 0.31709 0.73145 -0.26871 -0.88478 -0.38074
0.30176 0.31559 0.73145 -0.19514 -0.88974 -0.41266
0.30762 0.31421 0.73145 -0.069584 -0.88266 -0.46484
0.30762 0.31348 0.73389 -0.14706 -0.92625 -0.34703
0.31348 0.31406 0.73145 0.16165 -0.81583 -0.55524
0.31348 0.31348 0.73243 0.15066 -0.84127 -0.51919
0.31934 0.31527 0.73145 0.28604 -0.80532 -0.51928
0.31934 0.31348 0.7341 0.32417 -0.78474 -0.5283
0.3252 0.31709 0.73145 0.0066027 -0.87426 -0.48541
0.33105 0.31808 0.73145 0.19315 -0.80533 -0.56047
0.33691 0.3184 0.73145 -0.12583 -0.60317 -0.78763
0.34285 0.31348 0.73145 -0.5079 -0.55562 -0.65828
0.34277 0.31356 0.73145 -0.50526 -0.55436 -0.66136
0.34277 0.31348 0.73153 -0.50816 -0.56134 -0.6532
0.34921 0.30762 0.73145 -0.67109 -0.50366 -0.54403
0.34863 0.30837 0.73145 -0.64537 -0.51348 -0.56554
0.34863 0.30762 0.73233 -0.66012 -0.53726 -0.52497
0.35685 0.2959 0.72559 -0.85136 -0.19175 -0.48828
0.35449 0.2959 0.72819 -0.71035 -0.26553 -0.65184
0.35183 0.30176 0.73145 -0.89474 -0.21758 -0.38999
0.24902 0.33077 0.74902 -0.60893 -0.23452 -0.75776
0.25488 0.32737 0.74902 -0.2094 -0.97357 0.091232
0.26074 0.32661 0.74902 -0.23421 -0.93577 0.26358
0.26074 0.3252 0.75385 -0.077054 -0.98254 -0.16934
0.26767 0.3252 0.74902 -0.26948 -0.95577 0.11783
0.2666 0.32558 0.74902 -0.28868 -0.94615 0.1465
0.2666 0.3252 0.75273 -0.32295 -0.94637 0.0094248
0.26074 0.32506 0.7373 -0.48312 -0.85415 -0.19242
0.2666 0.32443 0.7373 -0.21275 -0.97329 -0.086321
0.27246 0.32299 0.7373 -0.29066 -0.9409 0.17385
0.28179 0.31934 0.7373 -0.33699 -0.93189 0.13425
0.27832 0.32098 0.7373 -0.37066 -0.90184 0.22202
0.28418 0.31809 0.7373 -0.31643 -0.94483 0.084674
0.29004 0.31665 0.7373 -0.063879 -0.99637 -0.056263
0.2959 0.31519 0.7373 -0.30884 -0.91518 -0.25898
0.30444 0.31348 0.7373 -0.14594 -0.96976 -0.19562
0.30176 0.31413 0.7373 -0.16983 -0.95017 -0.26141
0.30176 0.31348 0.73911 -0.12225 -0.96698 -0.22361
0.32412 0.31348 0.7373 0.22316 -0.78701 -0.57516
0.3252 0.31391 0.7373 0.19637 -0.82321 -0.5327
0.3252 0.31348 0.73779 0.22769 -0.81452 -0.53359
0.33105 0.31545 0.7373 0.13957 -0.91559 -0.37712
0.33105 0.31348 0.74112 0.16786 -0.86617 -0.47072
0.33981 0.31348 0.7373 -0.53458 -0.80948 -0.24284
0.33691 0.31539 0.7373 -0.30102 -0.8892 -0.34455
0.33691 0.31348 0.74161 -0.25248 -0.86939 -0.42475
0.35312 0.2959 0.73145 -0.90833 -0.26408 -0.32434
0.30762 0.3128 0.7373 -0.16713 -0.9691 -0.18143
0.31348 0.31146 0.7373 -0.062899 -0.94962 -0.30702
0.31934 0.31196 0.7373 0.21935 -0.80687 -0.54849
0.34624 0.30762 0.7373 -0.72115 -0.60492 -0.33766
0.34277 0.31104 0.7373 -0.65564 -0.70333 -0.2747
0.35004 0.30176 0.7373 -0.85116 -0.37657 -0.36568
0.34863 0.30402 0.7373 -0.78451 -0.49463 -0.37401
0.34863 0.30176 0.74021 -0.84462 -0.41985 -0.33217
0.2666 0.32471 0.74316 -0.21328 -0.97681 0.018651
0.27246 0.32327 0.74316 -0.19015 -0.97667 -0.099814
0.2834 0.31934 0.74316 -0.42766 -0.90381 0.015335
0.27832 0.32165 0.74316 -0.32104 -0.94671 -0.026165
0.24902 0.33042 0.75488 -0.62595 -0.76617 0.14551
0.25791 0.3252 0.75488 -0.1438 -0.94815 -0.28342
0.25488 0.32571 0.75488 -0.18232 -0.97906 -0.090578
0.35229 0.2959 0.7373 -0.91647 -0.32175 -0.23783
0.28418 0.31903 0.74316 -0.42258 -0.90632 -0.0016277
0.29004 0.31673 0.74316 -0.26966 -0.96189 -0.045173
0.29706 0.31348 0.74316 -0.34957 -0.93351 -0.079739
0.2959 0.31389 0.74316 -0.37713 -0.92444 -0.056442
0.30176 0.31234 0.74316 -0.13095 -0.97118 -0.19917
0.30762 0.31216 0.74316 -0.19489 -0.93732 -0.28887
0.31348 0.31143 0.74316 -0.22618 -0.9166 -0.32969
0.31934 0.31062 0.74316 0.09364 -0.92183 -0.3761
0.3252 0.31012 0.74316 0.30591 -0.8517 -0.42547
0.33105 0.31211 0.74316 0.15687 -0.85013 -0.50266
0.33691 0.31271 0.74316 -0.22699 -0.85058 -0.47434
0.34466 0.30762 0.74316 -0.69119 -0.66113 -0.29184
0.34277 0.30979 0.74316 -0.66144 -0.66362 -0.34944
0.34277 0.30762 0.74685 -0.62792 -0.71179 -0.31476
0.34724 0.30176 0.74316 -0.87536 -0.4385 -0.20361
0.27246 0.32302 0.74902 -0.24151 -0.95643 0.16406
0.28373 0.31934 0.74902 -0.43254 -0.89889 -0.070017
0.27832 0.32139 0.74902 -0.34825 -0.93735 -0.009612
0.35001 0.2959 0.74316 -0.89136 -0.34311 -0.29623
0.34863 0.29841 0.74316 -0.8929 -0.39896 -0.20869
0.34863 0.2959 0.74789 -0.86711 -0.4524 0.20848
0.28418 0.31908 0.74902 -0.42577 -0.90272 -0.061784
0.29004 0.31685 0.74902 -0.28534 -0.95687 -0.054645
0.29873 0.31348 0.74902 -0.33423 -0.93186 -0.14119
0.2959 0.31493 0.74902 -0.43569 -0.89195 -0.1208
0.34712 0.30176 0.74902 -0.84652 -0.4735 -0.24332
0.34277 0.30667 0.74902 -0.60751 -0.72726 -0.31941
0.30176 0.31173 0.74902 -0.26219 -0.95777 -0.11804
0.30762 0.31041 0.74902 -0.18466 -0.97501 -0.1235
0.31348 0.30963 0.74902 -0.11457 -0.99341 -0.0024671
0.31934 0.30944 0.74902 -0.10179 -0.9937 -0.046841
0.3252 0.309 0.74902 0.066127 -0.94732 -0.31339
0.33105 0.30924 0.74902 0.20862 -0.89898 -0.38511
0.33105 0.30762 0.75255 0.27306 -0.93068 -0.24347
0.34161 0.30762 0.74902 -0.59624 -0.72793 -0.33856
0.33691 0.31044 0.74902 -0.12442 -0.90139 -0.41474
0.26074 0.32464 0.75488 -0.05154 -0.96641 -0.25178
0.2666 0.32478 0.75488 -0.29467 -0.95021 -0.1014
0.27246 0.32367 0.75488 -0.24434 -0.96547 -0.090412
0.28231 0.31934 0.75488 -0.42851 -0.89799 -0.099975
0.27832 0.32164 0.75488 -0.49574 -0.86715 -0.047932
0.34858 0.2959 0.74902 -0.83389 -0.4993 0.23523
0.34863 0.2959 0.7491 -0.83514 -0.49957 0.23015
0.28418 0.31787 0.75488 -0.3381 -0.93503 -0.1068
0.29004 0.31616 0.75488 -0.26544 -0.96256 -0.05494
0.29846 0.31348 0.75488 -0.34575 -0.93814 0.018613
0.2959 0.31467 0.75488 -0.44905 -0.8934 -0.013497
0.33105 0.30689 0.75488 0.19371 -0.96434 -0.18036
0.34736 0.30176 0.75488 -0.66616 -0.64958 0.36645
0.34277 0.30614 0.75488 -0.5525 -0.83214 0.047876
0.34863 0.30176 0.7557 -0.79866 -0.55471 0.2333
0.2666 0.32251 0.76074 -0.13566 -0.9699 -0.20219
0.27246 0.32212 0.76074 -0.183 -0.97089 -0.15457
0.27978 0.31934 0.76074 -0.5165 -0.85558 -0.034841
0.27832 0.32035 0.76074 -0.4794 -0.87474 -0.070737
0.27832 0.31934 0.76551 -0.41513 -0.87811 -0.23788
0.30176 0.31144 0.75488 -0.34516 -0.93768 -0.040321
0.30762 0.30937 0.75488 -0.21772 -0.95493 -0.20178
0.30762 0.30762 0.75941 -0.29303 -0.91833 -0.2661
0.31348 0.3088 0.75488 -0.0054251 -0.96868 -0.24826
0.31348 0.30762 0.75784 0.066932 -0.96634 -0.24839
0.31934 0.30841 0.75488 -0.024894 -0.999 -0.037054
0.32711 0.30762 0.75488 -0.08222 -0.99464 -0.062691
0.3252 0.308 0.75488 -0.20618 -0.9785 0.0047567
0.33304 0.30762 0.75488 0.079119 -0.96205 -0.26113
0.33961 0.30762 0.75488 -0.34506 -0.93458 0.086605
0.33691 0.30915 0.75488 -0.023571 -0.9743 -0.22401
0.33691 0.30762 0.7604 0.1256 -0.9699 -0.20861
0.34277 0.30762 0.76068 -0.55908 -0.82155 -0.11171
0.35273 0.2959 0.75488 -0.96414 -0.20112 -0.17317
0.34863 0.30102 0.75488 -0.81236 -0.5 0.3001
0.30762 0.30732 0.76074 -0.31001 -0.92279 -0.22883
0.31348 0.30693 0.76074 0.12717 -0.95985 -0.25002
0.33105 0.30689 0.76074 0.012514 -0.9882 -0.15264
0.33691 0.30757 0.76074 0.12629 -0.96877 -0.21341
0.35192 0.30176 0.76074 -0.98131 -0.18662 -0.046896
0.34863 0.30566 0.76074 -0.61045 -0.79146 -0.0307
0.28418 0.31723 0.76074 -0.32651 -0.93636 -0.1289
0.29004 0.31531 0.76074 -0.21964 -0.9642 -0.14858
0.29663 0.31348 0.76074 -0.39375 -0.91267 -0.10955
0.2959 0.31375 0.76074 -0.39242 -0.91342 -0.10806
0.2959 0.31348 0.76229 -0.39787 -0.91141 -0.10504
0.27735 0.31934 0.7666 -0.37142 -0.87971 -0.29691
0.27246 0.32051 0.7666 -0.1947 -0.93144 -0.30744
0.30687 0.30762 0.76074 -0.35112 -0.90993 -0.22078
0.30176 0.31138 0.76074 -0.42076 -0.87872 -0.22542
0.31907 0.30762 0.76074 0.10861 -0.97197 -0.2085
0.31934 0.30767 0.76074 0.10826 -0.97172 -0.20985
0.31934 0.30762 0.76096 0.1075 -0.97309 -0.20379
0.32844 0.30762 0.76074 -0.1032 -0.98786 -0.11608
0.3252 0.30855 0.76074 -0.22449 -0.95853 -0.17555
0.34178 0.30762 0.76074 -0.45798 -0.87711 -0.1447
0.3428 0.30762 0.76074 -0.5581 -0.82221 -0.11183
0.34277 0.30764 0.76074 -0.55753 -0.82247 -0.11273
0.34277 0.30762 0.7608 -0.55644 -0.82376 -0.10862
0.35449 0.2959 0.76259 -0.76102 -0.55954 0.32827
0.30762 0.30737 0.7666 -0.29287 -0.95572 0.028828
0.31348 0.30596 0.7666 0.12072 -0.98617 0.11357
0.31934 0.30675 0.7666 0.082446 -0.99639 -0.020035
0.33105 0.30661 0.7666 -0.044695 -0.99235 -0.11512
0.33691 0.30718 0.7666 0.14115 -0.9849 -0.10026
0.35449 0.30176 0.7683 -0.78567 -0.49274 0.37407
0.28418 0.31855 0.7666 -0.54353 -0.81191 -0.21302
0.29503 0.31348 0.7666 -0.40644 -0.9118 -0.058508
0.29004 0.31594 0.7666 -0.091792 -0.98896 -0.11631
0.35776 0.2959 0.7666 -0.98122 -0.19113 -0.025989
0.35449 0.29974 0.7666 -0.79656 -0.35255 0.49113
0.2959 0.31286 0.7666 -0.38453 -0.92207 -0.043782
0.30692 0.30762 0.7666 -0.30226 -0.95319 0.0079809
0.30176 0.3103 0.7666 -0.49153 -0.8681 -0.069258
0.30762 0.30762 0.76909 -0.24081 -0.97046 0.014629
0.32494 0.30762 0.7666 -0.16199 -0.98341 -0.081631
0.32542 0.30762 0.7666 -0.17255 -0.98134 -0.084812
0.3252 0.30767 0.7666 -0.17192 -0.98157 -0.083476
0.34863 0.30762 0.77021 -0.44946 -0.77364 0.4466
0.31348 0.30682 0.77246 -0.027507 -0.99884 -0.039573
0.31934 0.30721 0.77246 0.05494 -0.99392 -0.09547
0.33105 0.30637 0.77246 -0.19356 -0.96749 0.16281
0.33691 0.30685 0.77246 0.41652 -0.84667 0.33115
0.35781 0.30176 0.77246 -0.70664 -0.50252 0.49813
0.35449 0.30604 0.77246 -0.73651 -0.51339 0.44044
0.36035 0.30176 0.77637 -0.829 -0.43589 0.35038
0.29565 0.31348 0.77246 -0.37981 -0.92407 -0.042928
0.29004 0.31705 0.77246 -0.18069 -0.98333 0.020121
0.2959 0.31348 0.77411 -0.39992 -0.91644 0.014256
0.36035 0.2959 0.7746 -0.91586 -0.16218 0.36728
0.2959 0.31293 0.77246 -0.42177 -0.90624 -0.029027
0.30176 0.30974 0.77246 -0.40375 -0.91473 -0.016082
0.30942 0.30762 0.77246 -0.18496 -0.98271 0.0088226
0.30762 0.30801 0.77246 -0.26675 -0.96354 0.020679
0.32305 0.30762 0.77246 0.027503 -0.9981 -0.055216
0.32571 0.30762 0.77246 -0.0055961 -0.99588 0.090534
0.3252 0.3078 0.77246 0.019972 -0.99857 0.049511
0.33105 0.30762 0.77635 -0.25383 -0.96324 0.087935
0.34503 0.30762 0.77246 -0.04365 -0.94073 0.33634
0.34277 0.30762 0.77304 0.065023 -0.94817 0.31103
0.35019 0.30762 0.77246 -0.27581 -0.82561 0.49224
0.34863 0.30891 0.77246 -0.26245 -0.90933 0.32286
0.35449 0.30762 0.77414 -0.69664 -0.64516 0.3138
0.2973 0.31348 0.77832 -0.57384 -0.81309 0.097915
0.2959 0.31426 0.77832 -0.63161 -0.73704 0.24049
0.2959 0.31348 0.78177 -0.87345 -0.47716 0.096986
0.31348 0.30716 0.77832 -0.099478 -0.99052 -0.094739
0.31934 0.3073 0.77832 0.051889 -0.99324 -0.10381
0.33691 0.3068 0.77832 0.50418 -0.8606 0.071964
0.36197 0.30176 0.77832 -0.93419 -0.25339 0.25116
0.36035 0.30372 0.77832 -0.8596 -0.17356 0.48059
0.3632 0.2959 0.77832 -0.57207 -0.59631 0.56315
0.36621 0.2959 0.78232 0.099974 -0.66131 0.74342
0.36035 0.31934 0.80507 0.18118 -0.93717 0.29815
0.36621 0.31934 0.80454 -0.10056 -0.96619 0.23742
0.30176 0.30855 0.77832 -0.36977 -0.91804 -0.14309
0.30176 0.30762 0.78056 -0.40994 -0.88952 -0.20174
0.31049 0.30762 0.77832 -0.16742 -0.98124 -0.09556
0.30762 0.30806 0.77832 -0.2636 -0.95357 -0.14567
0.30762 0.30762 0.77982 -0.2198 -0.96575 -0.1379
0.3246 0.30762 0.77832 0.19244 -0.9793 -0.062695
0.3252 0.30764 0.77832 0.20513 -0.9774 -0.051199
0.3252 0.30762 0.77843 0.20739 -0.97693 -0.050997
0.33317 0.30762 0.77832 0.15593 -0.9789 0.13204
0.33105 0.30847 0.77832 -0.18871 -0.98122 0.040059
0.3378 0.30762 0.77832 0.31108 -0.9499 0.03019
0.33691 0.30762 0.78201 0.29266 -0.9495 -0.1131
0.34277 0.31105 0.77832 0.012473 -0.99043 -0.13746
0.34863 0.31128 0.77832 -0.11254 -0.99293 -0.03766
0.35769 0.30762 0.77832 -0.29169 -0.67231 0.68038
0.35449 0.31094 0.77832 -0.30379 -0.94072 0.15087
0.36035 0.30762 0.78141 -0.64888 -0.2955 0.70117
0.35449 0.31348 0.7891 0.040332 -0.98835 0.14673
0.36035 0.31348 0.78815 -0.25296 -0.96736 0.014663
0.30762 0.30567 0.78418 -0.076467 -0.9663 -0.24581
0.31348 0.3058 0.78418 -0.013372 -0.99498 -0.099164
0.31934 0.30605 0.78418 -0.027314 -0.99876 -0.041511
0.3252 0.30624 0.78418 0.35167 -0.93427 -0.058844
0.36333 0.30176 0.78418 -0.21907 -0.025874 0.97537
0.36621 0.30176 0.78727 -0.85836 -0.037171 0.5117
0.36621 0.29771 0.78418 -0.073326 -0.27912 0.95745
0.35599 0.31934 0.80762 0.89606 -0.24457 -0.3705
0.32853 0.30762 0.78418 0.061062 -0.99796 -0.018514
0.33105 0.3085 0.78418 -0.11224 -0.99333 0.026578
0.33691 0.30834 0.78418 0.10086 -0.97391 -0.20329
0.34277 0.31104 0.78418 0.32065 -0.89973 0.29609
0.34863 0.31128 0.78418 0.083286 -0.82694 0.55608
0.35449 0.31128 0.78418 0.013348 -0.71453 0.69948
0.36261 0.30762 0.78418 -0.29853 -0.45057 0.84135
0.36035 0.31031 0.78418 -0.3334 -0.80252 0.49478
0.36621 0.30762 0.78743 -0.10981 -0.96419 0.24143
0.35016 0.31348 0.79004 0.054781 -0.98404 0.16928
0.34863 0.31348 0.7905 0.066813 -0.98724 0.14452
0.35449 0.31414 0.79004 0.015741 -0.99732 0.071464
0.36238 0.31348 0.79004 0.096953 -0.87961 -0.46572
0.36035 0.31517 0.79004 0.41911 -0.64523 -0.63876
0.31348 0.30232 0.79004 0.22372 -0.93085 -0.28891
0.31934 0.30502 0.79004 0.01678 -0.97608 -0.21678
0.3252 0.30492 0.79004 0.42824 -0.88732 -0.1711
0.32993 0.30762 0.79004 0.074822 -0.98983 -0.12098
0.33105 0.30807 0.79004 0.046402 -0.99682 -0.064768
0.33105 0.30762 0.79249 0.14822 -0.97796 -0.14703
0.33691 0.30807 0.79004 0.021173 -0.97188 0.23451
0.33691 0.30762 0.79348 0.26465 -0.96428 0.011583
0.34277 0.30775 0.79004 0.69611 -0.67921 0.23259
0.34863 0.31322 0.79004 0.077869 -0.97604 0.20319
0.36621 0.31083 0.79004 0.73945 -0.49642 0.45474
0.35913 0.31934 0.81348 0.37235 -0.61487 -0.69519
0.36035 0.31934 0.81918 -0.19791 -0.47233 -0.85892
0.36621 0.31934 0.81772 -0.30446 -0.21669 -0.92755
0.37207 0.31934 0.8164 0.060604 -0.33976 -0.93856
0.34572 0.31348 0.7959 0.24007 -0.86688 -0.43691
0.34863 0.31539 0.7959 0.33294 -0.94132 -0.055402
0.34863 0.31348 0.79882 0.55237 -0.83329 -0.022747
0.35449 0.31584 0.7959 0.34304 -0.70907 0.61607
0.36514 0.31348 0.7959 0.32013 -0.73397 0.59901
0.36035 0.31555 0.7959 -0.041261 -0.54383 0.83818
0.36621 0.31348 0.79713 0.39595 -0.77336 0.49511
0.31934 0.30321 0.7959 0.090628 -0.9244 -0.37049
0.3252 0.3028 0.7959 0.35857 -0.8381 -0.41112
0.3252 0.30176 0.7978 0.38458 -0.85562 -0.34642
0.33105 0.30616 0.7959 0.19332 -0.93561 -0.29541
0.33691 0.30729 0.7959 0.31344 -0.92853 -0.19897
0.33733 0.30762 0.7959 0.31804 -0.93254 -0.17094
0.34277 0.31023 0.7959 0.44776 -0.78573 -0.42678
0.36621 0.31258 0.7959 0.39275 -0.64537 0.65517
0.3252 0.30034 0.80176 0.19822 -0.9763 -0.086858
0.35141 0.31348 0.80176 0.45584 -0.84865 0.26833
0.35449 0.31582 0.80176 0.50582 -0.43228 0.74651
0.36035 0.31723 0.80176 0.082274 -0.28098 0.95618
0.36621 0.31706 0.80176 0.22917 -0.40391 0.88563
0.32848 0.30176 0.80176 0.43614 -0.85893 -0.26837
0.33105 0.3031 0.80176 0.37279 -0.89839 -0.23219
0.33105 0.30176 0.80649 0.45801 -0.85473 -0.24427
0.33691 0.30639 0.80176 0.38968 -0.90004 -0.19511
0.34139 0.30762 0.80176 0.36037 -0.92626 -0.11037
0.34277 0.30824 0.80176 0.24344 -0.96588 -0.088397
0.34277 0.30762 0.80709 0.27987 -0.95551 -0.093142
0.34863 0.31107 0.80176 0.80966 -0.58606 -0.031292
0.35195 0.31348 0.80762 0.51504 -0.7725 -0.37146
0.35449 0.31837 0.80762 0.87308 0.015859 -0.48733
0.33126 0.30176 0.80762 0.45636 -0.85013 -0.2627
0.33691 0.3054 0.80762 0.541 -0.83786 -0.072793
0.34277 0.30758 0.80762 0.27365 -0.9573 -0.093261
0.34282 0.30762 0.80762 0.26988 -0.95833 -0.093674
0.34277 0.30762 0.80851 0.25124 -0.96303 -0.097243
0.34863 0.31072 0.80762 0.84345 -0.52985 -0.08862
0.35252 0.31348 0.81348 0.4263 -0.88222 -0.19989
0.35449 0.31528 0.81348 0.89525 -0.35379 -0.27083
0.37207 0.31348 0.81922 0.029634 -0.84671 -0.53122
0.33373 0.30176 0.81348 0.40257 -0.87626 -0.26477
0.33691 0.30393 0.81348 0.66785 -0.72945 -0.1479
0.34242 0.30762 0.81348 0.20676 -0.97138 -0.11692
0.34277 0.30787 0.81348 0.17902 -0.97627 -0.12188
0.34277 0.30762 0.81781 0.20098 -0.97279 -0.1153
0.34863 0.31 0.81348 0.79573 -0.59451 -0.11564
0.35334 0.31348 0.81934 0.47711 -0.86817 -0.13656
0.35449 0.31435 0.81934 0.80196 -0.57922 -0.14615
0.35449 0.31348 0.8249 0.63006 -0.75883 -0.16493
0.36035 0.31907 0.81934 -0.21989 -0.48349 -0.84728
0.36035 0.31348 0.8251 -0.25548 -0.67142 -0.69565
0.37186 0.31348 0.81934 0.016438 -0.85643 -0.51601
0.36621 0.31732 0.81934 -0.31508 -0.41964 -0.85125
0.36621 0.31348 0.82328 -0.059425 -0.87491 -0.48063
0.37308 0.31348 0.81934 0.0043718 -0.83579 -0.54904
0.34277 0.30748 0.81934 0.2369 -0.96334 -0.12589
0.34294 0.30762 0.81934 0.23494 -0.96494 -0.117
0.34863 0.30939 0.81934 0.72715 -0.6808 -0.088095
0.37207 0.31343 0.81934 0.025135 -0.85641 -0.51569
0.34277 0.3054 0.8252 0.50273 -0.77679 -0.37929
0.34863 0.30176 0.82893 0.80214 -0.21619 -0.55662
0.34633 0.30762 0.8252 0.49255 -0.86576 -0.088675
0.34863 0.30832 0.8252 0.6227 -0.76847 -0.14732
0.34863 0.30762 0.82804 0.5838 -0.75683 -0.2939
0.35449 0.31317 0.8252 0.6009 -0.77863 -0.18073
0.36035 0.31342 0.8252 -0.25033 -0.67288 -0.6961
0.36621 0.31231 0.8252 0.043469 -0.86417 -0.50131
0.36621 0.30762 0.83096 0.0029122 -0.6946 -0.71939
0.37207 0.31316 0.8252 -0.07814 -0.91964 -0.3849
0.37207 0.30762 0.83055 0.060835 -0.53374 -0.84346
0.35161 0.30176 0.83105 0.36639 -0.63709 -0.67815
0.36621 0.30748 0.83105 -0.0064338 -0.69208 -0.72179
0.37207 0.30612 0.83105 0.033131 -0.45677 -0.88897
0.37207 0.30176 0.83302 -0.19833 -0.32437 -0.9249
0.35323 0.30762 0.83105 0.29423 -0.72195 -0.62627
0.35449 0.30839 0.83105 0.14168 -0.81502 -0.56185
0.35449 0.30762 0.83188 0.17994 -0.75417 -0.63154
0.36589 0.30762 0.83105 -0.0051453 -0.70761 -0.70658
0.36035 0.30892 0.83105 -0.045019 -0.81602 -0.57626
0.36035 0.30762 0.83285 -0.058711 -0.78064 -0.62222
0.37621 0.30762 0.83105 -0.45695 -0.48354 -0.74659
0.35449 0.30228 0.83691 0.068108 -0.81746 -0.57194
0.36035 0.30376 0.83691 -0.024977 -0.69415 -0.7194
0.36035 0.30176 0.83877 -0.05345 -0.75254 -0.65637
0.36683 0.30176 0.83691 -0.21376 -0.8018 -0.55805
0.36621 0.30226 0.83691 -0.2433 -0.74996 -0.61512
0.36621 0.30176 0.83734 -0.20241 -0.80586 -0.55643
0.38379 0.30257 0.81934 0.74313 -0.62476 -0.23967
0.37793 0.31453 0.81934 0.038763 -0.3229 -0.94564
0.37793 0.31348 0.82164 -0.25307 -0.63647 -0.7286
0.38279 0.30762 0.81934 0.40573 -0.35203 -0.84348
0.38184 0.30762 0.8252 -0.14102 -0.68925 -0.71066
0.37793 0.31263 0.8252 -0.42525 -0.76315 -0.48659
0.37793 0.30176 0.83302 -0.0048307 -0.6909 -0.72293
0.37816 0.30762 0.83105 -0.69075 -0.50416 -0.51835
0.37793 0.30798 0.83105 -0.66362 -0.54198 -0.51561
0.37793 0.30762 0.83128 -0.65675 -0.49615 -0.56791
-0.39551 0.35449 1.0143 0.0091031 0.78235 -0.62277
-0.38965 0.35449 1.0143 0.66442 0.66442 -0.3422
-0.20215 0.34277 0.78741 0.91661 0.37897 -0.1273
-0.21049 0.34863 0.80176 -0.3255 0.93248 -0.15664
-0.1896 0.34863 0.80176 0.86049 -0.37263 -0.34741
-0.20315 0.34277 0.79004 -0.57298 -0.34195 0.74482
-0.19792 0.34277 0.79004 0.76305 -0.4878 -0.42403
-0.20215 0.34277 0.79175 -0.81501 -0.5788 0.027447
-0.19629 0.34277 0.79269 0.71652 -0.47239 -0.51326
-0.2373 0.35449 0.81538 0.10496 0.52278 -0.84598
-0.23145 0.35449 0.81598 0.014946 0.48557 -0.87407
-0.22559 0.35449 0.81643 0.2503 0.3314 -0.90968
-0.21842 0.35449 0.81348 -0.5764 0.80855 -0.11838
-0.21973 0.35449 0.81887 -0.59219 0.73838 -0.32264
-0.20215 0.3423 0.79004 -0.33558 -0.74599 0.57523
-0.21217 0.34863 0.80762 -0.77254 -0.53705 -0.33877
-0.20801 0.34863 0.81322 -0.5024 -0.85452 -0.13188
-0.18675 0.34863 0.80762 0.80625 -0.56739 -0.16742
-0.19724 0.34277 0.7959 0.63964 -0.179 -0.74755
-0.19518 0.34277 0.7959 0.77682 -0.44069 -0.44982
-0.19629 0.3422 0.7959 0.72067 -0.51287 -0.46647
-0.21387 0.35033 0.81348 -0.52757 -0.82509 -0.2022
-0.20775 0.34863 0.81348 -0.50297 -0.85396 -0.13328
-0.20801 0.34883 0.81348 -0.4966 -0.8569 -0.13822
-0.18586 0.34863 0.81348 0.83293 -0.54106 -0.11611
-0.21411 0.36035 0.83691 0.58219 0.47789 -0.65778
-0.21387 0.36035 0.83772 0.57951 0.57951 -0.57301
-0.21387 0.35449 0.8302 0.20965 -0.97617 0.056005
-0.20801 0.35449 0.82843 -0.95917 -0.1036 0.26317
-0.20801 0.34503 0.80176 0.11149 -0.98007 -0.16441
-0.19788 0.34277 0.80176 0.48643 -0.037469 -0.87292
-0.20215 0.34571 0.80176 0.90781 -0.21967 -0.35725
-0.19221 0.34277 0.80176 0.81785 -0.43777 -0.37345
-0.19043 0.34704 0.80176 0.87902 -0.25801 -0.40094
-0.19043 0.34277 0.80593 0.81447 -0.57996 -0.016788
-0.19629 0.34197 0.80176 0.68942 -0.59328 -0.4156
-0.2163 0.35449 0.83105 0.79805 -0.51291 -0.31628
-0.20682 0.35449 0.83105 -0.64953 -0.028519 0.7598
-0.2373 0.35288 0.81934 0.15742 -0.41389 -0.89661
-0.23145 0.35268 0.81934 -0.033612 -0.50427 -0.86289
-0.23145 0.34863 0.82478 0.24119 -0.96311 0.11937
-0.22559 0.35035 0.81934 0.13472 -0.95892 -0.24965
-0.21973 0.35363 0.81934 -0.79933 0.45819 -0.38877
-0.21387 0.35006 0.81934 0.21884 -0.95334 0.20798
-0.20713 0.34863 0.81934 -0.52201 -0.76353 0.38016
-0.20801 0.34931 0.81934 -0.57522 -0.69746 0.4274
-0.18535 0.34863 0.81934 0.77565 -0.62988 0.040256
-0.19629 0.34125 0.80762 0.1103 -0.82917 0.54801
-0.19043 0.34261 0.80762 0.68604 -0.72149 0.09383
-0.20801 0.34616 0.80762 -0.43965 -0.82323 0.35917
-0.19843 0.34277 0.80762 0.023187 -0.84839 0.52886
-0.20215 0.34582 0.80762 0.52962 -0.7402 -0.41426
-0.19629 0.34277 0.8102 0.02287 -0.97536 0.21945
-0.18984 0.34277 0.80762 0.74685 -0.66237 0.059012
-0.19043 0.34277 0.80847 0.6631 -0.74351 0.0866
-0.18485 0.36035 0.85449 0.71151 -0.69893 0.072465
-0.23145 0.35449 0.84153 0.02274 -0.99693 -0.074969
-0.22559 0.35449 0.84153 -0.044243 -0.99857 -0.030022
-0.21568 0.35449 0.83691 0.70879 -0.18108 -0.68178
-0.21387 0.35449 0.83862 0.53584 -0.1115 -0.83693
-0.20439 0.35449 0.83691 -0.99079 0.12977 -0.038734
-0.20801 0.35449 0.841 -0.29165 0.85478 -0.42929
-0.23126 0.34863 0.8252 0.19657 -0.97378 0.11448
-0.23145 0.34863 0.82539 0.19589 -0.97364 0.11681
-0.22559 0.35256 0.8252 0.20548 -0.93609 -0.2855
-0.21973 0.35199 0.8252 -0.32733 -0.24613 0.91229
-0.21387 0.35027 0.8252 0.37652 -0.40649 0.83246
-0.20483 0.34863 0.8252 -0.26845 -0.95731 0.10722
-0.20801 0.3515 0.8252 -0.92365 -0.30635 0.23025
-0.20215 0.34863 0.83011 -0.060429 -0.96662 0.249
-0.19629 0.34863 0.82971 0.022992 -0.95322 0.30139
-0.20215 0.34549 0.81348 0.24015 -0.95902 -0.15035
-0.19629 0.34552 0.81348 0.50428 -0.85831 -0.094965
-0.19043 0.34532 0.81348 0.68583 -0.72709 -0.031217
-0.18598 0.36035 0.86035 0.6867 -0.67126 0.27901
-0.23145 0.35512 0.84277 0.035181 -0.98957 -0.13966
-0.23145 0.35449 0.84641 -0.020595 -0.99696 -0.075121
-0.22368 0.35449 0.84277 0.17792 -0.97782 0.11055
-0.22559 0.35511 0.84277 0.13238 -0.9912 -0.00091297
-0.22559 0.35449 0.84491 0.21667 -0.97089 -0.10207
-0.1857 0.35449 0.84277 0.6415 -0.74179 0.19551
-0.23145 0.35209 0.83105 0.088843 -0.9925 -0.084025
-0.22559 0.35231 0.83105 0.33566 -0.93193 0.13725
-0.21973 0.35148 0.83105 0.80036 -0.5978 0.045445
-0.20215 0.34891 0.83105 -0.19126 -0.92693 0.32284
-0.19572 0.34863 0.83105 0.19539 -0.90752 0.37179
-0.19629 0.349 0.83105 0.20108 -0.94169 0.2698
-0.18553 0.34863 0.83105 0.53015 -0.75335 0.38911
-0.19043 0.34863 0.83339 0.22329 -0.93386 0.27936
-0.20215 0.3456 0.81934 0.15593 -0.84518 0.51123
-0.19629 0.34595 0.81934 0.15791 -0.96123 0.22604
-0.19043 0.34637 0.81934 0.55928 -0.81735 -0.13837
-0.19638 0.36035 0.86621 -0.79486 -0.56673 0.21682
-0.20215 0.36035 0.87181 0.46477 -0.88335 0.060715
-0.19579 0.36035 0.86621 -0.68127 -0.6807 0.26929
-0.19629 0.36035 0.86744 -0.81658 -0.55341 0.16411
-0.19629 0.35449 0.85166 -0.44923 -0.82527 0.34223
-0.18895 0.35449 0.84863 0.49874 -0.79377 0.34811
-0.19043 0.35449 0.84984 0.44748 -0.85056 0.27626
-0.23145 0.35165 0.83691 0.01864 -0.75232 0.65854
-0.22559 0.35164 0.83691 -0.023319 -0.93485 0.35427
-0.21973 0.35246 0.83691 0.50452 -0.78935 -0.34983
-0.20215 0.3519 0.83691 -0.79516 -0.57253 0.19982
-0.19629 0.34914 0.83691 0.13354 -0.95971 0.24723
-0.19043 0.35177 0.83691 0.64076 -0.7456 0.18306
-0.20215 0.3468 0.8252 0.090212 -0.96667 0.23962
-0.19629 0.34715 0.8252 -0.31709 -0.94793 0.029723
-0.19043 0.34716 0.8252 0.65662 -0.75302 -0.042568
-0.20283 0.36035 0.87207 0.4025 -0.8867 0.22749
-0.19964 0.36035 0.87207 0.18603 -0.60576 -0.77359
-0.20215 0.36054 0.87207 0.47446 -0.87379 0.10666
-0.20215 0.36035 0.87319 0.15796 -0.9862 0.049536
-0.18741 0.36035 0.87207 0.44999 -0.87614 -0.17288
-0.19043 0.36035 0.87485 0.22243 -0.97456 0.02756
-0.20801 0.35449 0.85726 0.073474 -0.99241 0.098623
-0.19973 0.35449 0.85449 0.32025 -0.94107 -0.10873
-0.20215 0.35449 0.85723 0.39007 -0.92034 0.028778
-0.19043 0.35642 0.85449 0.58564 -0.75761 0.28818
-0.21973 0.34978 0.84277 0.20014 -0.97932 0.029487
-0.21387 0.35369 0.84277 0.44817 -0.35612 -0.81995
-0.20801 0.35375 0.84277 -0.33569 0.51552 -0.78838
-0.20215 0.35309 0.84277 -0.78444 -0.60568 -0.13343
-0.19629 0.3524 0.84277 0.21265 -0.95501 0.20672
-0.19043 0.35206 0.84277 0.58659 -0.74336 0.32143
-0.22559 0.35449 0.86552 0.12465 -0.9922 -0.0017835
-0.21973 0.35449 0.86403 0.081258 -0.99331 0.082031
-0.21314 0.35449 0.86035 0.050508 -0.99694 -0.059733
-0.21387 0.35449 0.86196 0.0068452 -0.99979 0.019181
-0.20801 0.3565 0.86035 0.17352 -0.9682 -0.1802
-0.20215 0.35685 0.86035 0.91935 -0.38329 -0.088768
-0.19043 0.3574 0.86035 0.34283 -0.93914 0.021975
-0.19335 0.36035 0.87793 0.16149 -0.98676 0.014931
-0.19043 0.36146 0.87793 0.33596 -0.94125 0.034452
-0.21973 0.35282 0.84863 0.35592 -0.91561 -0.187
-0.21387 0.35277 0.84863 -0.3069 -0.90657 -0.28974
-0.20801 0.35302 0.84863 0.020625 -0.7083 -0.70561
-0.20215 0.35307 0.84863 0.23137 -0.64492 0.72839
-0.19629 0.35197 0.84863 0.1259 -0.67202 0.72976
-0.19043 0.3538 0.84863 0.3976 -0.8594 0.32148
-0.22559 0.35485 0.86621 0.18678 -0.98239 0.0050842
-0.22559 0.35449 0.86867 0.28804 -0.95457 0.076364
-0.21973 0.35476 0.86621 0.12512 -0.97514 0.18291
-0.21973 0.35449 0.86752 0.18001 -0.97353 0.14087
-0.21387 0.35554 0.86621 0.023235 -0.91749 0.39709
-0.20801 0.3558 0.86621 0.18952 -0.76419 0.61652
-0.20215 0.35602 0.86621 0.5427 -0.65719 0.52305
-0.19043 0.35912 0.86621 0.52746 -0.82008 0.22195
-0.21973 0.35167 0.85449 0.24886 -0.88394 0.39587
-0.21387 0.353 0.85449 0.058824 -0.88421 0.46337
-0.20801 0.35222 0.85449 0.020171 -0.6639 0.74755
-0.20215 0.35236 0.85449 0.63498 -0.67556 0.37473
-0.19584 0.36035 0.88379 0.13493 -0.99082 -0.0077397
-0.19043 0.36114 0.88379 0.3144 -0.94896 0.025058
-0.19043 0.36035 0.88914 0.22035 -0.94163 -0.25453
-0.21973 0.35365 0.86035 0.075276 -0.99282 0.092922
-0.21387 0.35373 0.86035 0.12972 -0.99113 -0.029003
-0.21523 0.35449 0.87207 0.38284 -0.91961 0.088052
-0.21387 0.355 0.87207 0.29366 -0.94321 0.1553
-0.21387 0.35449 0.87336 0.44732 -0.89426 0.014459
-0.20801 0.35643 0.87207 0.30271 -0.9501 -0.075379
-0.19629 0.35969 0.87207 -0.13413 -0.97957 -0.14985
-0.19043 0.3593 0.87207 0.34728 -0.93068 0.11504
-0.20801 0.35449 0.87793 0.29004 -0.94369 -0.15911
-0.20801 0.3545 0.87793 0.28919 -0.94394 -0.15918
-0.20801 0.35449 0.87795 0.29043 -0.94367 -0.15854
-0.20215 0.35678 0.87793 0.37963 -0.92435 0.038035
-0.19629 0.35879 0.87793 0.26202 -0.96294 0.064022
-0.20686 0.35449 0.88379 0.37329 -0.9182 -0.13254
-0.20215 0.35706 0.88379 0.52342 -0.85081 0.046321
-0.19629 0.36021 0.88379 0.12702 -0.99184 -0.010814
-0.20215 0.34863 0.88958 0.58036 -0.32885 -0.74501
-0.20215 0.35583 0.88965 0.47754 -0.81801 -0.32063
-0.20215 0.35449 0.89148 0.54639 -0.56616 -0.61719
-0.19629 0.35989 0.88965 0.040954 -0.99839 -0.039233
-0.19629 0.35449 0.89488 0.36904 -0.76302 -0.53066
-0.19043 0.36021 0.88965 0.18911 -0.9402 -0.2833
-0.20209 0.34863 0.88965 0.57532 -0.33114 -0.7479
-0.20215 0.34891 0.88965 0.56122 -0.3472 -0.75132
-0.19579 0.35449 0.89551 0.31457 -0.78204 -0.53801
-0.19043 0.358 0.89551 -0.2449 -0.90045 -0.35945
-0.19043 0.35449 0.90039 -0.022237 -0.97238 -0.23232
-0.19043 0.35388 0.90137 0.07461 -0.98815 -0.1341
-0.18511 0.35449 0.90137 0.14044 -0.98934 -0.038432
-0.19043 0.35282 0.90723 0.18561 -0.93574 -0.29989
-0.19043 0.34863 0.91166 0.52966 -0.79972 -0.28269
-0.18689 0.35449 0.90723 0.14939 -0.95072 -0.27169
-0.18931 0.34863 0.91309 0.48117 -0.84997 -0.21454
-0.18244 0.35449 0.81348 0.78601 -0.59987 -0.1495
-0.17515 0.36035 0.8252 0.61748 -0.71757 0.32219
-0.18457 0.35096 0.81348 0.90057 -0.40123 -0.16733
-0.18127 0.35449 0.81934 0.74805 -0.54701 -0.37576
-0.17729 0.36035 0.83105 0.64076 -0.74484 0.18614
-0.18457 0.34977 0.81934 0.76475 -0.64425 -0.010165
-0.18457 0.34863 0.82464 0.67037 -0.73954 0.060641
-0.1792 0.35449 0.8252 0.86709 -0.40596 0.2887
-0.17871 0.35529 0.8252 0.84608 -0.40786 0.34321
-0.17871 0.35449 0.82651 0.88086 -0.38725 0.27225
-0.17708 0.36035 0.83691 0.79737 -0.55123 0.24566
-0.18457 0.34861 0.8252 0.66 -0.74889 0.059754
-0.18454 0.34863 0.8252 0.65703 -0.75156 0.058896
-0.18457 0.34863 0.82542 0.65356 -0.75341 0.072317
-0.17834 0.35449 0.83105 0.8527 -0.4861 0.19131
-0.17871 0.35449 0.83171 0.85261 -0.49363 0.17139
-0.17759 0.36035 0.84277 0.86815 -0.49608 -0.014906
-0.17871 0.36035 0.84403 0.75014 -0.6572 0.073372
-0.18457 0.35024 0.83105 0.58502 -0.69746 0.41388
-0.17871 0.35407 0.83105 0.86174 -0.46328 0.2068
-0.18307 0.35449 0.83691 0.54365 -0.82712 0.14254
-0.18457 0.35449 0.8403 0.52262 -0.82575 0.21212
-0.17871 0.35833 0.83691 0.94392 -0.32794 0.03835
-0.18197 0.36035 0.84863 0.50422 -0.84658 0.17047
-0.18457 0.36035 0.85403 0.72218 -0.68574 0.090688
-0.17871 0.36341 0.84863 0.87874 -0.41687 0.23245
-0.18457 0.35326 0.83691 0.63631 -0.74275 0.20837
-0.18457 0.35582 0.84277 0.71616 -0.61199 0.33554
-0.17871 0.35921 0.84277 0.80612 -0.54339 0.2343
-0.18457 0.36062 0.85449 0.7554 -0.64939 0.087577
-0.17871 0.36557 0.85449 0.64869 -0.72341 0.2364
-0.18457 0.35675 0.84863 0.81314 -0.55173 0.18548
-0.18457 0.3608 0.86035 0.83539 -0.52414 0.16554
-0.18457 0.36035 0.8661 0.70028 -0.71384 0.0064178
-0.18454 0.36035 0.86621 0.69131 -0.72256 -0.00053524
-0.18457 0.36035 0.86629 0.68864 -0.7251 -0.0018282
-0.18457 0.36033 0.86621 0.69284 -0.72108 0.0025392
-0.18457 0.36261 0.87207 0.53336 -0.7711 -0.34775
-0.17871 0.36591 0.87207 -0.22183 -0.8329 -0.50701
-0.17285 0.36509 0.87207 0.091952 -0.89055 -0.4455
-0.16699 0.36541 0.87207 0.69155 -0.68041 -0.24249
0.24917 0.33105 0.74316 -0.63375 0.75851 -0.15174
0.24902 0.33105 0.74393 -0.61791 0.73019 -0.29156
-0.18457 0.36176 0.87793 0.32239 -0.93811 -0.12656
-0.17871 0.36378 0.87793 -0.24605 -0.89787 -0.36508
-0.17285 0.36259 0.87793 0.2647 -0.92178 -0.2833
-0.16699 0.36315 0.87793 0.65022 -0.7095 -0.27172
0.24244 0.33691 0.75488 -0.76663 0.64184 0.018159
0.2373 0.33691 0.75955 0.90556 -0.197 0.37569
0.24316 0.33691 0.75782 -0.75245 0.6561 0.057908
-0.18457 0.36033 0.88965 0.0039051 -0.86365 -0.50407
0.24808 0.33105 0.74902 -0.62144 -0.2062 -0.75584
-0.18457 0.3621 0.88379 0.12985 -0.99152 0.0045483
-0.18457 0.36035 0.8896 0.0035959 -0.86525 -0.50133
-0.17871 0.36217 0.88379 -0.26176 -0.96033 -0.096211
-0.17285 0.36098 0.88379 0.25105 -0.96423 -0.085032
-0.16699 0.36292 0.88379 0.44899 -0.85022 -0.27485
-0.16113 0.36588 0.88379 0.56121 -0.79765 -0.22092
0.2411 0.33691 0.76074 -0.94512 -0.057123 0.32169
0.24354 0.33691 0.76074 -0.76747 0.62892 0.1243
-0.18457 0.35718 0.89551 -0.0037411 -0.88114 -0.47283
-0.17871 0.35736 0.89551 0.31677 -0.85681 -0.40685
-0.17285 0.35822 0.89551 0.099398 -0.97174 -0.2141
-0.16699 0.35906 0.89551 0.57759 -0.80744 -0.12015
-0.18457 0.35277 0.91309 0.38662 -0.92212 -0.014627
0.24794 0.33105 0.75488 -0.60901 -0.78286 0.1274
0.24316 0.33653 0.75488 -0.81953 0.57279 -0.016651
0.24902 0.33105 0.75693 -0.57722 -0.80593 0.13153
-0.18418 0.36035 0.88965 0.00058288 -0.86513 -0.50154
-0.17871 0.3607 0.88965 -0.056463 -0.9304 -0.36218
-0.17871 0.36035 0.89025 -0.024985 -0.93267 -0.35985
-0.17285 0.36155 0.88965 0.19043 -0.9339 -0.3026
-0.17285 0.36035 0.89297 0.14337 -0.96976 -0.19752
-0.16699 0.36192 0.88965 0.46647 -0.86327 -0.19279
-0.16699 0.36035 0.89307 0.58238 -0.80064 -0.14075
-0.16113 0.36386 0.88965 0.68753 -0.7233 -0.06432
0.24467 0.33691 0.7666 -0.65966 -0.31597 -0.68192
0.24316 0.33691 0.77039 -0.34743 -0.88035 -0.32291
-0.18457 0.35455 0.90137 0.14536 -0.9884 -0.044055
-0.17871 0.3566 0.90137 0.14969 -0.97141 -0.18429
-0.17285 0.35697 0.90137 0.14434 -0.91222 -0.38343
-0.16699 0.35846 0.90137 0.73117 -0.68154 -0.029885
-0.18457 0.35137 0.91895 0.58246 -0.81273 -0.014263
0.25128 0.33105 0.76074 -0.3524 -0.89305 0.27979
0.24902 0.33275 0.76074 -0.68388 -0.71633 0.13848
0.25488 0.33105 0.76391 -0.50694 -0.85066 0.13924
-0.16524 0.36035 0.89551 0.58551 -0.80409 -0.10307
-0.16113 0.36334 0.89551 0.59556 -0.78121 -0.18713
-0.18457 0.3551 0.90723 0.1595 -0.96174 -0.22274
-0.18457 0.35449 0.90909 0.20124 -0.96454 -0.17078
-0.17871 0.35593 0.90723 -0.026493 -0.98897 -0.14573
-0.17285 0.35592 0.90723 0.37804 -0.92315 0.06989
-0.16699 0.3574 0.90723 0.74122 -0.66685 0.076844
0.24902 0.33293 0.7666 -0.55193 -0.76045 0.34219
0.25692 0.33105 0.7666 -0.3711 -0.89132 0.26043
0.25488 0.3325 0.7666 -0.52732 -0.82048 0.22078
-0.18457 0.35122 0.9248 0.44842 -0.80954 -0.3789
-0.16361 0.36035 0.90137 0.46875 -0.87631 0.11115
-0.16113 0.36247 0.90137 0.40021 -0.90751 -0.12751
-0.17906 0.35449 0.91309 0.061384 -0.99644 0.057775
-0.17871 0.35458 0.91309 0.049657 -0.99708 0.058085
-0.17285 0.35513 0.91309 0.50248 -0.86157 0.072158
-0.16699 0.35834 0.91309 0.44816 -0.88666 -0.11392
0.25488 0.33207 0.77246 -0.35832 -0.88533 0.29629
-0.18457 0.34902 0.93066 0.3327 -0.90386 -0.26897
-0.17871 0.35157 0.93066 0.55988 -0.8253 -0.073639
-0.17285 0.3544 0.93066 0.22898 -0.97245 -0.043678
-0.16382 0.36035 0.90723 0.37755 -0.9093 -0.17502
-0.16113 0.36346 0.90723 0.28714 -0.91947 -0.26855
-0.15527 0.36475 0.90723 0.13382 -0.89948 -0.41597
-0.14941 0.36544 0.90723 0.46717 -0.86769 -0.16991
-0.18072 0.35449 0.91895 0.11335 -0.98738 -0.11063
-0.17871 0.35555 0.91895 0.051996 -0.98701 -0.152
-0.17285 0.35594 0.91895 0.47674 -0.85464 -0.2057
-0.16699 0.35888 0.91895 0.32265 -0.90097 -0.29009
-0.16451 0.36035 0.91309 0.39037 -0.90924 -0.14455
-0.16113 0.36232 0.91309 0.21992 -0.97549 -0.0078031
-0.15527 0.36298 0.91309 0.031132 -0.99951 -0.0038163
-0.14941 0.36319 0.91309 0.5787 -0.75909 -0.29815
-0.17285 0.35357 0.94238 0.13025 -0.88168 -0.45352
-0.16699 0.35374 0.94238 0.039989 -0.81583 -0.57691
-0.16113 0.35373 0.94238 0.4686 -0.8346 -0.28959
-0.15527 0.35413 0.94238 0.16787 -0.9694 0.1791
-0.18039 0.35449 0.9248 0.18479 -0.97505 -0.12299
-0.17871 0.35513 0.9248 0.13773 -0.99037 -0.014037
-0.17871 0.35449 0.92675 0.24128 -0.96886 -0.055564
-0.17285 0.35533 0.9248 0.37713 -0.92611 0.0093959
-0.17285 0.35449 0.93032 0.23793 -0.97029 -0.043934
-0.16699 0.35729 0.9248 0.16389 -0.97038 -0.17748
-0.16113 0.35869 0.9248 0.03006 -0.94068 -0.33797
-0.15527 0.35859 0.9248 0.18959 -0.95249 -0.23838
-0.14941 0.35926 0.9248 -0.15993 -0.89982 -0.40588
-0.14355 0.35812 0.9248 0.93162 -0.345 -0.11427
-0.16152 0.36035 0.91895 0.21607 -0.84482 -0.48949
-0.16113 0.36047 0.91895 0.19705 -0.84695 -0.49381
-0.16113 0.36035 0.91918 0.19112 -0.83798 -0.51115
-0.15527 0.36088 0.91895 -0.0070733 -0.8641 -0.50327
-0.15527 0.36035 0.91957 0.02152 -0.82636 -0.56272
-0.14941 0.36108 0.91895 0.1959 -0.78532 -0.58728
-0.14941 0.36035 0.92019 0.11748 -0.77178 -0.62494
-0.14355 0.36184 0.91895 0.91618 -0.37309 -0.14634
-0.14355 0.36035 0.92016 0.93677 -0.30844 -0.16532
-0.16699 0.35192 0.94824 0.14281 -0.9533 0.26613
-0.16113 0.35228 0.94824 0.61399 -0.73761 0.28097
-0.17267 0.35449 0.93066 0.22245 -0.97362 -0.05085
-0.17285 0.35449 0.93128 0.2044 -0.97716 -0.058077
-0.16699 0.35671 0.93066 0.1975 -0.97481 -0.10363
-0.16113 0.35768 0.93066 0.014509 -0.99895 0.04353
-0.15527 0.35761 0.93066 0.23986 -0.9708 -0.0031469
-0.14941 0.35855 0.93066 0.14931 -0.92501 0.34938
-0.14355 0.35616 0.93066 0.78259 -0.58129 0.22284
-0.14266 0.36035 0.9248 0.91508 -0.36935 -0.16191
-0.16699 0.35112 0.9541 0.3523 -0.93191 0.086143
-0.16113 0.35353 0.9541 0.32747 -0.9374 -0.11853
-0.17381 0.35449 0.93652 0.17899 -0.9669 -0.18183
-0.17285 0.35511 0.93652 0.14075 -0.97687 -0.16098
-0.17285 0.35449 0.93933 0.14463 -0.95891 -0.24408
-0.16699 0.35597 0.93652 0.3007 -0.95103 -0.071527
-0.16699 0.35449 0.94089 0.19309 -0.8056 -0.56011
-0.16113 0.35594 0.93652 0.076737 -0.99692 -0.015969
-0.16113 0.35449 0.93911 0.24063 -0.79664 -0.5545
-0.15527 0.35644 0.93652 -0.1416 -0.95797 -0.24949
-0.15527 0.35449 0.94071 0.0075217 -0.99824 0.058757
-0.14941 0.35701 0.93652 0.64282 -0.76522 -0.03492
-0.14178 0.36035 0.93066 0.77518 -0.62968 -0.050893
-0.14355 0.36035 0.93556 0.70096 -0.71319 -0.0035373
-0.15354 0.35449 0.94238 0.36422 -0.91589 0.16877
-0.15527 0.35449 0.94405 0.1698 -0.97883 0.11432
-0.14941 0.35571 0.94238 0.73031 -0.67736 0.088479
-0.14516 0.36035 0.93652 0.69209 -0.72168 0.01387
-0.14355 0.36178 0.93652 0.65573 -0.74557 -0.11894
-0.15699 0.35449 0.94824 0.30494 -0.95051 0.059588
-0.15527 0.35578 0.94824 0.14987 -0.98778 0.042697
-0.14941 0.35757 0.94824 0.7933 -0.60785 0.034555
-0.14578 0.36035 0.94238 0.57443 -0.77221 0.27151
-0.14355 0.36302 0.94238 0.40423 -0.90195 0.15194
-0.11426 0.36543 0.94238 0.21623 -0.81974 -0.53035
-0.16022 0.35449 0.9541 0.36188 -0.92851 -0.083156
-0.15527 0.35646 0.9541 0.46721 -0.80448 0.36678
-0.14941 0.35841 0.9541 0.62173 -0.70304 0.34523
-0.14612 0.36035 0.94824 0.62497 -0.78057 0.011405
-0.14355 0.36548 0.94824 0.073057 -0.97636 -0.20345
-0.1377 0.36587 0.94824 -0.081249 -0.94673 -0.3116
-0.13184 0.36532 0.94824 0.016814 -0.92047 -0.39045
-0.12598 0.36567 0.94824 -0.24943 -0.8773 -0.41004
-0.12012 0.36444 0.94824 -0.051457 -0.95866 -0.27987
-0.11426 0.36443 0.94824 0.2855 -0.93832 -0.19505
-0.1084 0.3655 0.94824 0.50731 -0.8556 -0.10284
-0.16111 0.35449 0.95996 0.42778 -0.88393 -0.18885
-0.15527 0.35495 0.95996 0.87599 -0.48233 -0.00080968
-0.1464 0.36035 0.9541 0.5179 -0.8516 0.080975
-0.14941 0.36035 0.95775 0.48233 -0.86466 0.14041
-0.14355 0.36515 0.9541 -0.091886 -0.97068 -0.22214
-0.1377 0.36528 0.9541 -0.092009 -0.93315 -0.34752
-0.13184 0.36479 0.9541 0.033333 -0.95177 -0.305
-0.12598 0.3642 0.9541 0.029275 -0.99736 -0.066398
-0.12012 0.36376 0.9541 -0.019635 -0.97939 0.20104
-0.11426 0.36391 0.9541 0.32851 -0.91207 0.24539
-0.1084 0.36502 0.9541 0.28145 -0.95809 0.053387
-0.15186 0.36035 0.95996 0.34802 -0.89781 0.26983
-0.14941 0.3616 0.95996 0.48556 -0.85344 0.18942
-0.14355 0.36516 0.95996 -0.19412 -0.96463 -0.17836
-0.1377 0.36475 0.95996 0.11658 -0.99316 0.0062403
-0.13184 0.3644 0.95996 -0.02147 -0.98714 0.1584
-0.12598 0.36268 0.95996 0.241 -0.96599 0.093698
-0.12012 0.36406 0.95996 0.039175 -0.99813 0.046887
-0.11426 0.3646 0.95996 0.22811 -0.9712 -0.068873
-0.15235 0.36035 0.96582 0.52671 -0.82994 0.18378
-0.14941 0.36317 0.96582 0.25806 -0.85795 0.44421
-0.14355 0.36452 0.96582 -0.027142 -0.90711 0.42002
-0.1377 0.36425 0.96582 -0.060616 -0.95043 0.30498
-0.13184 0.36493 0.96582 -0.1653 -0.97984 -0.11224
-0.12598 0.36226 0.96582 0.14572 -0.95858 -0.24471
-0.12012 0.36332 0.96582 0.097431 -0.96869 -0.22836
-0.11426 0.36478 0.96582 0.12966 -0.9832 -0.12844
-0.1084 0.3656 0.96582 0.2957 -0.95158 -0.084008
-0.14941 0.36513 0.97168 0.17082 -0.98317 -0.064758
-0.13184 0.36494 0.97168 -0.30092 -0.94524 -0.12637
-0.12598 0.36177 0.97168 0.16352 -0.97972 -0.11578
-0.12012 0.36109 0.97168 0.037854 -0.99551 -0.086766
-0.11426 0.36249 0.97168 0.15941 -0.97206 -0.1723
-0.1084 0.36393 0.97168 0.28635 -0.94389 -0.16456
-0.14355 0.35835 0.98926 0.37226 -0.66554 -0.6469
-0.14941 0.36334 0.97754 0.42679 -0.89969 -0.091722
-0.14941 0.36035 0.98233 0.69032 -0.42749 -0.5837
-0.13184 0.36477 0.97754 -0.43225 -0.89917 -0.068192
-0.12598 0.36198 0.97754 0.19321 -0.98109 -0.011793
-0.12012 0.36261 0.97754 0.010359 -0.99128 -0.13138
-0.11426 0.36118 0.97754 0.158 -0.98648 0.043551
-0.1084 0.36317 0.97754 0.28169 -0.95947 -0.0086772
-0.10254 0.36542 0.97754 0.3376 -0.94109 0.019321
-0.14355 0.35572 0.99512 0.3834 -0.89219 -0.23874
-0.1377 0.35873 0.99512 0.57004 -0.78827 -0.2317
-0.1377 0.3574 1.001 0.59129 -0.7619 -0.26436
-0.14805 0.36035 0.9834 0.61315 -0.40985 -0.67533
-0.14355 0.36035 0.98756 0.34966 -0.52139 -0.77839
-0.13184 0.36351 0.9834 -0.49811 -0.86535 0.055257
-0.12598 0.36275 0.9834 0.090057 -0.99563 -0.024763
-0.12012 0.36387 0.9834 0.019466 -0.98798 -0.15337
-0.11426 0.36325 0.9834 0.27576 -0.9513 -0.13781
-0.1084 0.36352 0.9834 0.40614 -0.91316 0.034614
-0.10254 0.36579 0.9834 0.25734 -0.96241 0.08683
-0.1377 0.35582 1.0068 0.41357 -0.86812 -0.27447
-0.13184 0.35787 1.0068 0.55885 -0.73874 -0.37677
-0.1408 0.36035 0.98926 0.3099 -0.61407 -0.72586
-0.1377 0.36281 0.98926 -0.028946 -0.93478 -0.35404
-0.1377 0.36035 0.99132 0.37528 -0.85885 -0.34863
-0.13184 0.36346 0.98926 -0.26713 -0.95521 0.12734
-0.12598 0.36299 0.98926 0.12993 -0.89342 0.43003
-0.12012 0.36342 0.98926 -0.19506 -0.88994 0.41226
-0.11426 0.36324 0.98926 0.202 -0.96129 0.18739
-0.1084 0.36469 0.98926 0.46778 -0.87817 0.099955
-0.13184 0.35575 1.0127 0.60907 -0.75967 -0.22788
-0.12598 0.36004 1.0127 0.63231 -0.75503 -0.17354
-0.13517 0.36035 0.99512 0.45063 -0.87749 -0.16415
-0.13184 0.36245 0.99512 0.29837 -0.94073 0.16123
-0.12598 0.36394 0.99512 0.10589 -0.97698 0.18518
-0.12012 0.36562 0.99512 -0.21775 -0.97556 -0.029585
-0.11426 0.36423 0.99512 0.32303 -0.92535 0.19844
-0.1084 0.36508 0.99512 0.30622 -0.92956 0.20531
-0.12598 0.35912 1.0186 0.6981 -0.64166 -0.31768
-0.13326 0.36035 1.001 0.60865 -0.74105 -0.28352
-0.13184 0.36135 1.001 0.58813 -0.76942 -0.2492
-0.13184 0.36035 1.0037 0.65169 -0.68473 -0.32626
-0.12012 0.36615 1.001 -0.055746 -0.99801 0.029501
-0.11426 0.3645 1.001 0.3545 -0.91445 0.19523
-0.11426 0.35449 1.0288 0.68168 0.050782 -0.72989
-0.12969 0.36035 1.0068 0.60873 -0.67271 -0.42061
-0.12598 0.36384 1.0068 0.16306 -0.98356 -0.077664
-0.12598 0.36035 1.012 0.61481 -0.76536 -0.19036
-0.12012 0.36582 1.0068 -0.0026327 -0.98788 0.15523
-0.12567 0.36035 1.0127 0.61544 -0.76971 -0.16964
-0.12012 0.36488 1.0127 0.17249 -0.9846 -0.028326
-0.12457 0.36035 1.0186 0.65489 -0.70634 -0.26871
-0.12012 0.36417 1.0186 0.36066 -0.92731 -0.10009
-0.12134 0.36035 1.0244 0.48772 -0.67059 -0.55897
-0.12012 0.36193 1.0244 0.45199 -0.7443 -0.49166
-0.12012 0.36035 1.0267 0.42389 -0.6093 -0.67012
-0.11426 0.36531 1.0244 0.31738 -0.93104 -0.18012
-0.11426 0.36035 1.0284 0.78487 -0.16619 -0.59695
-0.11248 0.36035 1.0303 0.77826 -0.059222 -0.62514
-0.1084 0.36035 1.0343 0.84619 -0.2705 -0.45912
-0.10705 0.36035 1.0361 0.72987 -0.51054 -0.45457
-0.10674 0.36035 1.042 0.4409 -0.73227 -0.51902
-0.10254 0.36536 1.042 0.21305 -0.86597 -0.45244
-0.10254 0.36035 1.0476 0.38266 -0.87174 -0.30601
-0.10105 0.36035 1.0479 0.77319 -0.59247 -0.22618
-0.09668 0.3615 1.0479 0.8651 -0.49035 -0.10563
-0.079102 0.36017 1.1006 0.47598 -0.73197 -0.48751
-0.073242 0.35929 1.1064 0.28713 -0.60783 -0.74034
-0.067383 0.35984 1.1064 0.52301 -0.63784 -0.56536
-0.09668 0.36415 1.0596 0.53624 -0.81284 0.22747
-0.067383 0.35677 1.1123 0.56377 -0.76274 -0.31683
-0.061523 0.35876 1.1182 0.35394 -0.81916 -0.45133
-0.061523 0.35449 1.1233 -0.60254 -0.79445 -0.076088
-0.055664 0.35449 1.1205 0.69514 0.046303 -0.71738
-0.084961 0.36488 1.0771 0.4544 -0.85106 -0.26311
-0.09668 0.36447 1.083 -0.32529 -0.93262 -0.15624
-0.09082 0.36381 1.083 -0.08706 -0.92915 -0.3593
-0.09082 0.36035 1.0876 0.10679 -0.82432 -0.55596
-0.084961 0.36288 1.083 0.5279 -0.83316 -0.16486
-0.084961 0.36035 1.0876 0.67655 -0.68207 -0.27759
-0.079102 0.36601 1.083 0.21084 -0.95679 -0.20027
-0.084253 0.36035 1.0889 0.64631 -0.70046 -0.30273
-0.079102 0.36557 1.0889 0.25075 -0.94511 -0.20952
-0.081988 0.36035 1.0947 0.57999 -0.73127 -0.35896
-0.079102 0.36304 1.0947 0.42875 -0.85158 -0.30164
