ply
format ascii 1.0
comment author Lingfeng Ai
element vertex 829
property float x
property float y
property float z
property float nx
property float ny
property float nz
end_header
0.0920613 0.0732422 0.579102 0.583017 0.371179 -0.722715
0.0966797 0.0732422 0.581345 0.42167 0.651995 -0.630156
0.0909086 0.0498047 0.573242 0.570037 0.0753451 -0.818157
0.0908203 0.049976 0.573242 0.565457 0.0768723 -0.821188
0.0889401 0.0556641 0.573242 0.554487 -0.135191 -0.821138
0.0908203 0.0556641 0.575197 0.626626 0.0885832 -0.774269
0.0966797 0.0556641 0.577487 0.448578 0.375659 -0.810961
0.0919744 0.0791016 0.579102 0.743289 0.165143 -0.648267
0.0953227 0.0615234 0.579102 0.565728 0.430135 -0.703517
0.0966797 0.0615234 0.58024 0.52576 0.52576 -0.668695
0.0966797 0.0780467 0.584961 0.564113 0.096414 -0.820049
0.0966797 0.0585821 0.579102 0.50989 0.217742 -0.832226
0.0963991 0.0498047 0.579102 0.741631 -0.139102 -0.656227
0.0966797 0.0508802 0.579102 0.797506 -0.0742282 -0.598727
0.0966797 0.0498047 0.579411 0.788756 -0.121034 -0.602674
0.0961725 0.0791016 0.584961 0.500437 0.114702 -0.858141
0.0966797 0.0791016 0.585472 0.546164 0.0786158 -0.833981
-0.0439453 0.0849609 0.543483 -0.0125527 0.103474 -0.994553
-0.0146484 0.102539 0.549757 -0.114174 -0.0507726 -0.992163
-0.00878906 0.102539 0.548592 -0.0954977 0.00636805 -0.995409
-0.00292969 0.102539 0.548097 0.0130586 0.0415307 -0.999052
-0.0380859 0.0966797 0.54789 0.216514 0.678375 -0.702089
-0.00878906 0.0966797 0.548452 -0.0685782 0.00282429 -0.997642
-0.00292969 0.0966797 0.548039 -0.0841126 0.0396031 -0.995669
-0.0205078 0.108398 0.549752 -0.156265 -0.0268094 -0.987351
-0.0146484 0.108398 0.54894 -0.059465 -0.0540096 -0.996768
-0.00878906 0.108398 0.548726 -0.0453662 -0.00187229 -0.998969
-0.00292969 0.108398 0.548164 0.0172641 0.0228643 -0.99959
-0.0498047 0.0908203 0.547554 -0.206684 0.898843 -0.386475
-0.0439453 0.0908203 0.545723 -0.538873 0.628746 -0.56062
-0.0380859 0.0908203 0.544183 0.262256 0.574898 -0.775057
-0.0322266 0.0908203 0.545529 0.429042 0.460531 -0.777068
-0.0146484 0.0908203 0.549766 -0.205407 -0.000548515 -0.978676
-0.00878906 0.0908203 0.548647 -0.102166 0.0199994 -0.994566
-0.00292969 0.0908203 0.547821 -0.190345 0.122636 -0.974027
-0.0146484 0.114258 0.548614 -0.0591803 -0.100629 -0.993162
-0.00878906 0.114258 0.54829 0.0226789 -0.0906871 -0.995621
-0.00292969 0.114258 0.548507 0.0225602 -0.0418048 -0.998871
-0.0556641 0.0849609 0.547037 -0.518057 0.544798 -0.659403
-0.0465444 0.0849609 0.543945 -0.120088 0.330323 -0.936197
-0.0498047 0.0849609 0.544574 -0.216365 0.37715 -0.900525
-0.0422765 0.0849609 0.543945 0.0311304 -0.0479863 -0.998363
-0.0439453 0.0862352 0.543945 -0.122993 0.389968 -0.912577
-0.0380859 0.0849609 0.545106 0.159198 -0.064213 -0.985156
-0.0322266 0.0849609 0.545488 0.741554 0.0117306 -0.670791
-0.00878906 0.0849609 0.548641 -0.14861 -0.00334823 -0.98889
-0.00292969 0.0849609 0.547778 -0.254155 0.00275348 -0.96716
-0.0322266 0.102539 0.554638 -0.332185 -0.10784 -0.937029
-0.0263672 0.102539 0.552613 -0.307571 -0.132524 -0.942251
-0.0150754 0.102539 0.549805 -0.115957 -0.0596838 -0.991459
-0.0205078 0.107892 0.549805 -0.154422 -0.034443 -0.987404
-0.0205078 0.102539 0.550415 -0.148573 -0.110868 -0.982667
-0.0322266 0.108398 0.554045 -0.339174 -0.11052 -0.934209
-0.0206655 0.108398 0.549805 -0.159458 -0.0263169 -0.986854
-0.0263672 0.108398 0.551768 -0.276611 -0.0545596 -0.959432
-0.0205078 0.112401 0.549805 -0.17645 -0.0654934 -0.982128
-0.0398628 0.0966797 0.549805 -0.118123 0.832287 -0.541613
-0.0341556 0.0966797 0.549805 0.0968797 0.437655 -0.893909
-0.0380859 0.0990397 0.549805 -0.122976 0.586989 -0.800201
-0.0322266 0.0966797 0.551176 0.0950932 0.329444 -0.939374
-0.0263672 0.0966797 0.553007 -0.278588 -0.113267 -0.953708
-0.0205078 0.0966797 0.551697 -0.225928 -0.110062 -0.967906
-0.0142051 0.0966797 0.549805 -0.193241 -0.00676378 -0.981128
-0.0146484 0.100841 0.549805 -0.149207 -0.0389419 -0.988039
-0.0146484 0.0966797 0.549917 -0.201465 -0.0112046 -0.979432
-0.0673828 0.0908203 0.555211 0.342662 0.878166 -0.333778
-0.0615234 0.0908203 0.552528 -0.151437 0.926739 -0.343833
-0.0513921 0.0908203 0.549805 -0.23935 0.899699 -0.365038
-0.0556641 0.0908203 0.552975 -0.194166 0.908239 -0.370677
-0.0498047 0.0916903 0.549805 -0.291856 0.844943 -0.44821
-0.0439453 0.0925372 0.549805 -0.731222 0.486378 -0.478279
-0.028354 0.0908203 0.549805 0.116073 0.157527 -0.980669
-0.0322266 0.0947684 0.549805 0.23695 0.294469 -0.92582
-0.0263672 0.0908203 0.552049 -0.225087 0.150258 -0.962683
-0.0148501 0.0908203 0.549805 -0.206167 0.00124728 -0.978516
-0.0205078 0.0908203 0.550862 -0.228299 0.085562 -0.969824
-0.0146484 0.0923246 0.549805 -0.218133 -0.00315174 -0.975914
-0.0380859 0.114258 0.555599 -0.383373 -0.118373 -0.915976
-0.0322266 0.114258 0.553293 -0.283786 -0.114157 -0.952068
-0.0263672 0.114258 0.551252 -0.230023 -0.0596567 -0.971355
-0.0203851 0.114258 0.549805 -0.194293 -0.0851803 -0.977238
-0.0205078 0.114514 0.549805 -0.19971 -0.0846747 -0.97619
-0.0205078 0.114258 0.54983 -0.196753 -0.0836697 -0.976876
-0.0439453 0.102539 0.559909 -0.558502 -0.0427105 -0.828403
-0.0356656 0.102539 0.555664 -0.291703 -0.0636426 -0.954389
-0.0380859 0.102539 0.556352 -0.270048 -0.059896 -0.960982
-0.0673828 0.0849609 0.554849 -0.591428 0.0756269 -0.802804
-0.0605757 0.0849609 0.549805 -0.171654 0.486661 -0.856561
-0.0615234 0.0849609 0.550354 -0.161057 0.415721 -0.895118
-0.0556641 0.0866816 0.549805 -0.415318 0.605442 -0.678934
-0.0282863 0.0849609 0.549805 0.256331 0.0163475 -0.966451
-0.0263672 0.0849609 0.551866 -0.112142 -0.0345501 -0.993091
-0.0205078 0.0849609 0.551441 -0.212008 -0.0978071 -0.972361
-0.0129611 0.0849609 0.549805 -0.194095 -0.0180742 -0.980816
-0.0146484 0.0903835 0.549805 -0.201513 -0.00306804 -0.979481
-0.0146484 0.0849609 0.550264 -0.204218 -0.034049 -0.978333
-0.0439453 0.108398 0.559823 -0.533092 -0.070408 -0.843123
-0.0375792 0.108398 0.555664 -0.322863 -0.100355 -0.94111
-0.0380859 0.112419 0.555664 -0.372175 -0.108207 -0.921833
-0.0380859 0.108398 0.555813 -0.32136 -0.0915068 -0.942525
-0.0732422 0.0966797 0.561044 0.563218 0.788714 -0.246404
-0.0430434 0.0966797 0.555664 -0.552377 0.67167 -0.4937
-0.0439453 0.0966797 0.557519 -0.664219 0.557609 -0.49788
-0.0380859 0.102162 0.555664 -0.27121 0.027749 -0.96212
-0.0678964 0.0908203 0.555664 0.313921 0.884285 -0.345679
-0.0732422 0.0908203 0.559945 -0.223928 0.511946 -0.829318
-0.0673828 0.0923105 0.555664 0.578272 0.774533 -0.256321
-0.0615234 0.0919571 0.555664 -0.229363 0.909169 -0.34757
-0.0556641 0.0926386 0.555664 -0.300929 0.84686 -0.438485
-0.0498047 0.0938441 0.555664 -0.507336 0.679634 -0.529818
-0.0439453 0.0958385 0.555664 -0.715053 0.52808 -0.458072
-0.0382001 0.114258 0.555664 -0.386088 -0.117253 -0.91498
-0.0439453 0.114258 0.559087 -0.478574 -0.107387 -0.871456
-0.0791016 0.102539 0.565759 0.252204 0.931515 -0.262054
-0.0461124 0.102539 0.561523 -0.534514 -0.0529258 -0.843501
-0.0498047 0.102539 0.563948 -0.497919 -0.0977748 -0.861694
-0.0684948 0.0849609 0.555664 -0.608182 0.0757513 -0.790175
-0.0732422 0.0849609 0.558754 -0.519558 0.153438 -0.840545
-0.0739803 0.0966797 0.561523 0.534648 0.804931 -0.257367
-0.0791016 0.0966797 0.565162 -0.0323478 0.696703 -0.716631
-0.0689567 0.0966797 0.561523 0.216965 0.921197 -0.32299
-0.0732422 0.0995326 0.561523 0.809316 0.581021 -0.086153
-0.0673828 0.0966797 0.561762 0.153674 0.867787 -0.472578
-0.0556641 0.0966797 0.566635 -0.636887 0.396523 -0.661169
-0.048126 0.0966797 0.561523 -0.554238 0.36704 -0.747062
-0.0498047 0.0966797 0.562517 -0.438426 0.389772 -0.809852
-0.0473028 0.108398 0.561523 -0.482412 -0.101407 -0.870055
-0.0498047 0.108398 0.562791 -0.470037 -0.108747 -0.875922
-0.0753216 0.0908203 0.561523 -0.390704 0.234654 -0.890105
-0.0791016 0.0908203 0.564681 -0.595422 0.0345413 -0.802671
-0.0673828 0.0964559 0.561523 0.21278 0.861359 -0.461287
-0.0615234 0.0936266 0.561523 -0.41488 0.778935 -0.47025
-0.0556641 0.0947131 0.561523 -0.472266 0.570395 -0.672023
-0.0498047 0.0961227 0.561523 -0.450888 0.428517 -0.78299
-0.0556641 0.114258 0.566597 -0.59588 -0.165313 -0.785875
-0.0491784 0.114258 0.561523 -0.460627 -0.14258 -0.876067
-0.0498047 0.11794 0.561523 -0.478034 -0.155344 -0.864495
-0.0498047 0.114258 0.561834 -0.465112 -0.140633 -0.87401
-0.0767252 0.102539 0.567383 0.210383 0.928189 -0.306928
-0.0791016 0.10317 0.567383 0.248312 0.922929 -0.294183
-0.0732422 0.102539 0.569544 0.343384 0.765141 -0.544653
-0.0544281 0.102539 0.567383 -0.616865 -0.0959021 -0.781204
-0.0556641 0.102539 0.568425 -0.629456 -0.100377 -0.770526
-0.0803896 0.0966797 0.567383 -0.280975 0.51016 -0.81289
-0.0732422 0.101072 0.567383 0.58029 0.696975 -0.421294
-0.064564 0.0966797 0.567383 -0.286474 0.174329 -0.942094
-0.0673828 0.0982492 0.567383 -0.327689 0.740216 -0.587111
-0.0564928 0.0966797 0.567383 -0.673441 0.375673 -0.636669
-0.0615234 0.0966797 0.573133 -0.572349 0.315116 -0.757046
-0.0556641 0.0996546 0.567383 -0.62446 0.252662 -0.739062
-0.0765017 0.0849609 0.561523 -0.595271 0.207609 -0.776242
-0.0791016 0.0849609 0.563901 -0.644098 0.171161 -0.745548
-0.0552243 0.108398 0.567383 -0.605434 -0.127298 -0.785649
-0.0556641 0.110223 0.567383 -0.601653 -0.140211 -0.786355
-0.0556641 0.108398 0.56774 -0.607246 -0.128965 -0.783977
-0.0806748 0.0908203 0.567383 -0.713672 -0.0132963 -0.700354
-0.0849609 0.0908203 0.573068 -0.836235 0.111796 -0.536854
-0.0615234 0.0951358 0.567383 -0.594724 0.594271 -0.541429
-0.0563904 0.114258 0.567383 -0.620985 -0.160152 -0.767287
-0.0615234 0.114258 0.572975 -0.66223 -0.182366 -0.72677
-0.0791016 0.104862 0.573242 0.391725 0.745345 -0.539456
-0.0714157 0.102539 0.573242 0.0767448 0.503598 -0.860523
-0.0732422 0.103872 0.573242 -0.018219 0.77902 -0.626734
-0.060835 0.102539 0.573242 -0.658812 -0.0924118 -0.74661
-0.0615234 0.102539 0.57383 -0.669514 -0.0825436 -0.738198
-0.0835946 0.0966797 0.573242 -0.752534 0.0447526 -0.657031
-0.0849609 0.0966797 0.575755 -0.801443 -0.105868 -0.588626
-0.0673828 0.100202 0.573242 -0.735754 0.436566 -0.51776
-0.0615234 0.0976263 0.573242 -0.590523 0.278312 -0.757512
-0.082212 0.0849609 0.567383 -0.727727 0.159576 -0.667045
-0.0849609 0.0849609 0.570105 -0.713056 0.258733 -0.65162
-0.061071 0.108398 0.573242 -0.69078 -0.0996665 -0.716163
-0.0615234 0.112109 0.573242 -0.697071 -0.144082 -0.702376
-0.0615234 0.108398 0.573674 -0.701523 -0.0951057 -0.706272
-0.0851421 0.0908203 0.573242 -0.832068 0.123054 -0.540852
-0.0908203 0.0908203 0.578733 -0.685337 0.328336 -0.650007
-0.0849609 0.0912613 0.573242 -0.845039 0.0977892 -0.525686
-0.061806 0.114258 0.573242 -0.66319 -0.189266 -0.724125
-0.0673828 0.114258 0.578947 -0.713212 -0.211005 -0.668435
-0.0849609 0.106423 0.579102 -0.366641 0.815283 -0.448206
-0.0684577 0.102539 0.579102 -0.621662 -0.00227898 -0.783283
-0.0732422 0.106056 0.579102 -0.667358 0.381027 -0.639884
-0.0652248 0.102539 0.579102 -0.744377 -0.0273206 -0.6672
-0.0673828 0.102539 0.581522 -0.747827 0.00642674 -0.663863
-0.0880618 0.0966797 0.579102 -0.764317 -0.249629 -0.594562
-0.0908203 0.0966797 0.58212 -0.843663 0.0433151 -0.535123
-0.0673828 0.101793 0.579102 -0.751554 0.176864 -0.63552
-0.0885468 0.0849609 0.573242 -0.631005 0.381879 -0.675278
-0.0908203 0.0849609 0.575283 -0.627234 0.395459 -0.670962
-0.0654098 0.108398 0.579102 -0.740963 -0.0883419 -0.66571
-0.0673828 0.113986 0.579102 -0.710933 -0.209207 -0.671422
-0.0673828 0.108398 0.581572 -0.735526 -0.145582 -0.66167
-0.0911896 0.0908203 0.579102 -0.682386 0.334504 -0.649967
-0.0908203 0.0915599 0.579102 -0.703819 0.272881 -0.655877
-0.0791016 0.114258 0.58123 0.691599 -0.129311 -0.710612
-0.0674827 0.114258 0.579102 -0.714749 -0.208644 -0.667534
-0.0732422 0.10775 0.584961 -0.776772 0.000495915 -0.629782
-0.095127 0.0966797 0.584961 -0.639885 0.0583695 -0.766251
-0.0966797 0.0966797 0.586138 -0.7573 0.107295 -0.644193
-0.102539 0.0849609 0.583757 -0.482315 0.612928 -0.625853
-0.0964731 0.0849609 0.579102 -0.524034 0.55352 -0.647305
-0.0966797 0.0849609 0.579216 -0.51574 0.563167 -0.645643
-0.102539 0.0908203 0.588602 -0.669846 0.40755 -0.620652
-0.0963645 0.0908203 0.584961 -0.623263 0.295495 -0.724034
-0.0966797 0.0908203 0.58524 -0.609154 0.296627 -0.735488
-0.0707244 0.108398 0.584961 -0.745579 -0.242439 -0.620754
-0.0732422 0.108398 0.587892 -0.726723 -0.182972 -0.662113
-0.0749749 0.114258 0.584961 -0.571544 -0.155014 -0.805797
-0.0719534 0.114258 0.584961 -0.786357 -0.124692 -0.605058
-0.0732422 0.114258 0.586684 -0.803193 -0.108315 -0.585789
-0.102539 0.0864441 0.584961 -0.487367 0.518784 -0.702379
-0.0966797 0.090564 0.584961 -0.608913 0.30786 -0.731059
-0.0849609 0.116212 0.59082 -0.510407 0.522428 -0.683047
0.00292969 0.0908203 0.546405 -0.00961214 0.179977 -0.983624
0.00878906 0.0908203 0.546456 -0.0753559 0.155928 -0.98489
0.0146484 0.0908203 0.54595 -0.0149418 0.15961 -0.987067
0.0205078 0.0908203 0.545783 -0.0150569 0.213928 -0.976733
0.0263672 0.0908203 0.545445 0.0399681 0.220518 -0.974564
0.0322266 0.0908203 0.545839 0.103091 0.188242 -0.976697
0.0380859 0.0908203 0.546588 0.302115 0.215497 -0.928594
0.0439453 0.0908203 0.548341 0.340231 0.197024 -0.91947
0.00292969 0.0966797 0.54752 0.00336559 0.098949 -0.995087
0.00878906 0.0966797 0.547377 -0.0165899 0.191484 -0.981356
0.0146484 0.0966797 0.546845 0.0157605 0.275412 -0.961197
0.0205078 0.0966797 0.546926 0.077218 0.34321 -0.936079
0.0263672 0.0966797 0.547103 0.039776 0.425801 -0.903942
0.0322266 0.0966797 0.547124 0.136381 0.476621 -0.868466
0.0380859 0.0966797 0.547749 0.235705 0.428826 -0.872096
0.00292969 0.0849609 0.546147 -0.100155 0.112057 -0.988642
0.00878906 0.0849609 0.545052 -0.0461182 0.190822 -0.980541
0.0146484 0.0849609 0.54508 -0.0554068 0.190254 -0.98017
0.0205078 0.0849609 0.544539 -0.0207134 0.179521 -0.983536
0.0263672 0.0849609 0.54468 0.104258 0.116303 -0.987727
0.0322266 0.0849609 0.545499 0.0398219 0.157509 -0.986714
0.0380859 0.0849609 0.545236 0.276775 0.208425 -0.938059
0.0439453 0.0849609 0.547038 0.385114 0.185903 -0.903951
0.0498047 0.0849609 0.549628 0.446246 0.201951 -0.871826
0.00292969 0.108398 0.548465 0.0948831 -0.00298389 -0.995484
0.00878906 0.108398 0.548923 0.320084 0.108139 -0.941197
0.00292969 0.102539 0.54793 0.0454006 0.11988 -0.99175
0.00878906 0.102539 0.548091 0.150343 0.232404 -0.960929
0.0146484 0.102539 0.548585 0.125275 0.387735 -0.913218
0.0205078 0.102539 0.548745 0.115811 0.449533 -0.885725
0.0263672 0.102539 0.549638 0.0864354 0.444261 -0.891718
0.00292969 0.114258 0.548326 0.139703 0.0366092 -0.989516
0.00878906 0.114258 0.548938 0.464096 0.131815 -0.875922
0.0473859 0.0908203 0.549805 0.447887 0.155177 -0.880521
0.0439453 0.0960652 0.549805 0.266691 0.331603 -0.904939
0.0498047 0.0908203 0.55082 0.481832 0.172706 -0.859075
0.0556641 0.0908203 0.553969 0.476718 0.185902 -0.859174
0.0322266 0.102054 0.549805 0.082444 0.394003 -0.915404
0.0434831 0.0966797 0.549805 0.254162 0.353707 -0.900163
0.0380859 0.100068 0.549805 0.196101 0.37991 -0.903998
0.0439453 0.0966797 0.549966 0.255642 0.346882 -0.902397
0.0498047 0.0966797 0.551773 0.508106 0.280041 -0.814497
0.0556641 0.0966797 0.555306 0.431063 0.274877 -0.859435
0.0118982 0.108398 0.549805 0.274178 0.19407 -0.941894
0.0146484 0.108398 0.550501 0.267113 0.236154 -0.934282
0.0205078 0.108398 0.551879 0.116712 0.308768 -0.94395
0.0263672 0.108398 0.552518 0.112845 0.341318 -0.93315
0.0322266 0.108398 0.553186 0.0976526 0.442141 -0.891614
0.0380859 0.108398 0.553134 0.243563 0.523266 -0.816621
0.0439453 0.108398 0.554584 0.257399 0.528524 -0.808955
0.0501611 0.0849609 0.549805 0.448284 0.203435 -0.870434
0.0498047 0.0858234 0.549805 0.450465 0.194473 -0.871356
0.0556641 0.0849609 0.552496 0.525922 0.150517 -0.837109
0.0146484 0.106246 0.549805 0.230841 0.286719 -0.929788
0.0205078 0.104539 0.549805 0.103546 0.394258 -0.913148
0.0287958 0.102539 0.549805 0.0779954 0.453941 -0.887612
0.0263672 0.10287 0.549805 0.0883447 0.435133 -0.896021
0.0322266 0.102539 0.55005 0.0682106 0.384926 -0.920423
0.0380859 0.102539 0.551205 0.221688 0.320049 -0.921099
0.0439453 0.102539 0.552383 0.240524 0.38333 -0.891744
0.0498047 0.102539 0.553694 0.435576 0.315517 -0.843044
0.0105954 0.114258 0.549805 0.407513 0.180097 -0.895264
0.0146484 0.114258 0.551704 0.318334 0.229508 -0.919777
0.0205078 0.114258 0.553636 0.207378 0.30039 -0.931
0.0263672 0.114258 0.554515 0.184481 0.408805 -0.893781
0.0322266 0.114258 0.555352 0.200844 0.464026 -0.862752
0.0587763 0.0908203 0.555664 0.520673 0.167835 -0.837097
0.0615234 0.0908203 0.557291 0.509005 0.206977 -0.835509
0.0673828 0.0908203 0.56064 0.5308 0.191435 -0.825593
0.0380859 0.11267 0.555664 0.265939 0.479478 -0.836288
0.0469657 0.108398 0.555664 0.280445 0.514412 -0.810389
0.0439453 0.10993 0.555664 0.252379 0.518681 -0.816869
0.0498047 0.108398 0.556616 0.302419 0.484035 -0.821129
0.0556641 0.108398 0.559012 0.406635 0.3739 -0.833575
0.0563641 0.0966797 0.555664 0.447477 0.266476 -0.853671
0.0556641 0.0976123 0.555664 0.425394 0.267904 -0.864446
0.0615234 0.0966797 0.558432 0.510393 0.193915 -0.837792
0.0602874 0.0849609 0.555664 0.487091 0.149586 -0.860445
0.0615234 0.0849609 0.556461 0.483865 0.155984 -0.861129
0.0673828 0.0849609 0.559602 0.510661 0.205418 -0.834883
0.0263672 0.117068 0.555664 0.23272 0.401773 -0.885675
0.0336428 0.114258 0.555664 0.215315 0.467871 -0.857168
0.0322266 0.114847 0.555664 0.203015 0.468769 -0.859675
0.0380859 0.114258 0.556628 0.264518 0.462241 -0.846382
0.0439453 0.114258 0.558554 0.289221 0.486355 -0.824506
0.0498047 0.114258 0.560343 0.255201 0.528081 -0.80994
0.0528215 0.102539 0.555664 0.427691 0.24217 -0.870881
0.0498047 0.106452 0.555664 0.332618 0.439286 -0.834502
0.0556641 0.102539 0.557409 0.445393 0.280116 -0.850388
0.0615234 0.102539 0.560154 0.463582 0.283204 -0.839576
0.0686123 0.0908203 0.561523 0.551452 0.195649 -0.810939
0.0673828 0.0938536 0.561523 0.542351 0.19557 -0.817073
0.0732422 0.0908203 0.564535 0.629714 0.193564 -0.752325
0.070857 0.0849609 0.561523 0.583986 0.206882 -0.784958
0.0732422 0.0849609 0.562818 0.652519 0.166265 -0.739308
0.0660471 0.0966797 0.561523 0.517865 0.196529 -0.832582
0.0673828 0.0966797 0.562298 0.539272 0.191137 -0.820154
0.0732422 0.0966797 0.566155 0.595145 0.121351 -0.794403
0.0601128 0.108398 0.561523 0.440012 0.341042 -0.830711
0.0556641 0.113154 0.561523 0.357146 0.514373 -0.779658
0.0615234 0.108398 0.562313 0.439938 0.346983 -0.828286
0.0673828 0.108398 0.565326 0.523706 0.257857 -0.811937
0.0638609 0.102539 0.561523 0.500463 0.253145 -0.827922
0.0615234 0.106263 0.561523 0.434986 0.324433 -0.839959
0.0673828 0.102539 0.563576 0.545578 0.28123 -0.789465
0.0732422 0.102539 0.56727 0.519843 0.266081 -0.811766
0.0439453 0.119694 0.561523 0.301372 0.544523 -0.782732
0.0537493 0.114258 0.561523 0.318733 0.543554 -0.776504
0.0498047 0.116088 0.561523 0.270259 0.544376 -0.794113
0.0556641 0.114258 0.562072 0.35349 0.542946 -0.761744
0.0615234 0.114258 0.564658 0.366886 0.498446 -0.785459
0.0781437 0.0849609 0.567383 0.650142 0.158812 -0.743031
0.0791016 0.0849609 0.568143 0.654099 0.136636 -0.743966
0.0747602 0.0966797 0.567383 0.602634 0.123594 -0.788389
0.0791016 0.0966797 0.570676 0.529332 0.191632 -0.82649
0.0766616 0.0908203 0.567383 0.613678 0.12082 -0.780257
0.0791016 0.0908203 0.569702 0.558494 0.0635739 -0.827069
0.0700976 0.108398 0.567383 0.512362 0.186864 -0.838193
0.0673828 0.11308 0.567383 0.403989 0.357664 -0.841944
0.0732422 0.108398 0.569761 0.472252 0.217353 -0.854246
0.0791016 0.108398 0.572815 0.616534 0.173331 -0.768012
0.0734051 0.102539 0.567383 0.525393 0.260465 -0.810012
0.0732422 0.102808 0.567383 0.514316 0.264399 -0.815826
0.0791016 0.102539 0.571672 0.604259 0.207669 -0.76925
0.0664157 0.114258 0.567383 0.362715 0.408097 -0.837792
0.0615234 0.117989 0.567383 0.29607 0.511469 -0.806686
0.0673828 0.114258 0.567877 0.370632 0.383469 -0.845922
0.0732422 0.114258 0.571031 0.485967 0.279021 -0.828241
0.084378 0.0849609 0.573242 0.687421 0.120527 -0.716189
0.0849609 0.0849609 0.573817 0.683296 0.134881 -0.717575
0.0908203 0.0849609 0.578816 0.826811 0.081419 -0.556555
0.0833564 0.0966797 0.573242 0.662958 0.212734 -0.717796
0.0849609 0.0966797 0.574174 0.687831 0.189707 -0.700642
0.0836 0.0908203 0.573242 0.701132 -0.0310489 -0.712355
0.0849609 0.0908203 0.574261 0.725309 -0.034736 -0.687547
0.0795683 0.108398 0.573242 0.622372 0.168924 -0.764276
0.0791016 0.109914 0.573242 0.605911 0.193095 -0.771742
0.0849609 0.108398 0.577745 0.692186 0.186762 -0.697136
0.0811793 0.102539 0.573242 0.627498 0.226763 -0.744866
0.0849609 0.102539 0.57592 0.647187 0.209498 -0.73298
0.0769846 0.114258 0.573242 0.53802 0.250072 -0.804984
0.0791016 0.114258 0.574491 0.576741 0.224178 -0.785566
0.0849609 0.114258 0.579005 0.657336 0.0957504 -0.74749
0.0910405 0.0849609 0.579102 0.812322 0.0776575 -0.578016
0.0908203 0.0860804 0.579102 0.818314 0.0454116 -0.572975
0.0895842 0.0966797 0.579102 0.607934 -0.0771808 -0.790228
0.0908203 0.0966797 0.580402 0.650034 -0.166612 -0.741415
0.0894815 0.0908203 0.579102 0.749858 -0.0647161 -0.658426
0.0908203 0.0908203 0.580447 0.776524 -0.0982051 -0.622387
0.0865009 0.108398 0.579102 0.54846 0.222318 -0.806081
0.0908203 0.108398 0.583645 0.595527 0.111152 -0.795608
0.0884156 0.102539 0.579102 0.359921 0.339037 -0.869201
0.0908203 0.102539 0.581323 0.419194 0.284748 -0.862087
0.0850554 0.114258 0.579102 0.654739 0.0924627 -0.750178
0.0849609 0.114621 0.579102 0.64851 0.113116 -0.752755
0.0942789 0.0908203 0.584961 0.508445 -0.214186 -0.834031
0.0966797 0.0908203 0.588482 0.48878 -0.0459911 -0.871194
0.0945903 0.0849609 0.584961 0.428053 0.12627 -0.894889
0.0966797 0.0849609 0.587553 0.426361 0.1395 -0.893731
0.0950091 0.0966797 0.584961 0.492009 -0.339433 -0.801693
0.0966797 0.0966797 0.586905 0.760495 -0.284025 -0.583933
0.0908203 0.113869 0.584961 0.708103 0.336477 -0.620784
0.0907339 0.114258 0.584961 0.710783 0.331509 -0.620394
0.0908203 0.116329 0.584961 0.751391 0.249647 -0.610808
0.0908203 0.114258 0.585033 0.715398 0.334974 -0.613187
-0.0615234 0.149414 0.5145 -0.124706 -0.660099 -0.740754
-0.0556641 0.149414 0.513769 -0.0213773 -0.651463 -0.758379
-0.0498047 0.149414 0.513351 0.0459183 -0.72483 -0.687396
-0.0439453 0.149414 0.512857 0.595359 -0.803206 -0.0201823
-0.0615234 0.149253 0.514648 -0.119817 -0.695172 -0.708788
-0.0556641 0.149259 0.514648 -0.0189498 -0.720512 -0.693183
-0.0498047 0.149247 0.514648 0.110891 -0.833474 -0.541317
-0.0439453 0.149162 0.514648 0.601359 -0.798944 0.00744723
-0.0791016 0.149414 0.519365 -0.327906 -0.522983 -0.786744
-0.0732422 0.153207 0.514648 -0.236347 -0.319023 -0.917804
-0.0732422 0.149414 0.516603 -0.186647 -0.511854 -0.838551
-0.0628611 0.149414 0.514648 -0.136776 -0.660777 -0.738015
-0.0673828 0.15033 0.514648 -0.209206 -0.550166 -0.808424
-0.0673828 0.149414 0.515156 -0.167867 -0.579485 -0.797507
-0.0434209 0.149414 0.514648 0.508121 -0.861234 0.00942204
-0.0380859 0.154046 0.514648 0.0710566 -0.884273 -0.461532
-0.0322266 0.154636 0.514648 0.226845 -0.832147 -0.506036
-0.0263672 0.154894 0.514648 0.574325 -0.816696 -0.0562031
-0.0791016 0.148253 0.520508 -0.298765 -0.594134 -0.746823
-0.0791016 0.143555 0.525977 -0.0193302 -0.991244 -0.130623
-0.0732422 0.145271 0.520508 -0.0951454 -0.806909 -0.582962
-0.0732422 0.143555 0.522578 0.0989021 -0.964533 -0.244733
-0.0673828 0.145806 0.520508 0.0871875 -0.939872 -0.330211
-0.0615234 0.145157 0.520508 0.194551 -0.976305 -0.0947511
-0.0556641 0.148598 0.520508 0.0608861 -0.921723 -0.383041
-0.0498047 0.148558 0.520508 0.535426 -0.807546 0.247363
-0.0439453 0.149034 0.520508 0.294929 -0.950535 0.0974727
-0.0908203 0.149414 0.524827 -0.378977 -0.467319 -0.798743
-0.0819466 0.149414 0.520508 -0.345655 -0.499974 -0.794071
-0.0849609 0.152255 0.520508 -0.403431 -0.312766 -0.859896
-0.0849609 0.149414 0.521916 -0.368552 -0.493745 -0.787645
-0.043511 0.149414 0.520508 0.238865 -0.970607 0.0294292
-0.0439453 0.149414 0.521053 0.206638 -0.977387 0.0448825
-0.0380859 0.153732 0.520508 0.435203 -0.898108 0.0632425
-0.0322266 0.153735 0.520508 0.248596 -0.849224 0.465853
-0.0263672 0.154208 0.520508 0.437344 -0.870396 0.226145
-0.0908203 0.148285 0.526367 -0.31929 -0.599186 -0.734186
-0.0795935 0.143555 0.526367 -0.0281556 -0.990205 -0.136751
-0.0849609 0.146395 0.526367 -0.243289 -0.795406 -0.555103
-0.0692666 0.143555 0.526367 0.334524 -0.937262 0.098153
-0.0732422 0.143555 0.528432 0.0787656 -0.98568 0.149102
-0.0673828 0.14419 0.526367 0.309434 -0.949348 0.0546692
-0.0615234 0.147427 0.526367 -0.0490004 -0.968957 -0.242325
-0.0556641 0.14794 0.526367 0.505191 -0.829081 0.239595
-0.0498047 0.148058 0.526367 0.473128 -0.862061 0.181663
-0.0966797 0.143387 0.538086 0.150091 -0.984794 0.0874798
-0.0908203 0.14351 0.538086 0.264799 -0.937536 0.225627
-0.0205078 0.120117 0.549216 -0.239049 -0.0983507 -0.966014
-0.0146484 0.120117 0.548035 -0.0743668 -0.14039 -0.987299
-0.00878906 0.120117 0.547794 -0.0290843 -0.214311 -0.976332
-0.00292969 0.120117 0.547721 0.197286 -0.136667 -0.970773
-0.0263672 0.131836 0.54971 -0.298599 -0.111355 -0.94786
-0.0205078 0.131836 0.54773 -0.087976 -0.069863 -0.99367
-0.0146484 0.131836 0.547155 -0.108235 -0.086941 -0.990316
-0.00878906 0.131836 0.546602 0.130655 -0.0244986 -0.991125
-0.00292969 0.131836 0.546858 0.162668 0.0567107 -0.98505
-0.0205078 0.125977 0.548887 -0.186705 -0.127258 -0.974139
-0.0146484 0.125977 0.547455 -0.0853585 -0.0385051 -0.995606
-0.00878906 0.125977 0.546776 -0.0245466 0.0345034 -0.999103
-0.00292969 0.125977 0.546544 0.243837 0.0208053 -0.969593
-0.092865 0.149414 0.526367 -0.407133 -0.437332 -0.801863
-0.0966797 0.153797 0.526367 -0.497907 -0.232238 -0.835556
-0.0966797 0.149414 0.528911 -0.509189 -0.431723 -0.744541
-0.0481153 0.149414 0.526367 0.186917 -0.981865 -0.0316781
-0.0498047 0.149414 0.528919 0.123594 -0.992333 0.000591309
-0.0439453 0.152799 0.526367 0.0560673 -0.966163 -0.251764
-0.0380859 0.152904 0.526367 0.753303 -0.6529 0.079095
-0.0966797 0.146192 0.532227 -0.405306 -0.705 -0.581982
-0.0966797 0.143555 0.536668 0.0287849 -0.999549 -0.00851355
-0.0908203 0.144285 0.532227 0.160014 -0.976908 -0.141586
-0.0908203 0.143555 0.536894 0.266291 -0.943242 0.198451
-0.080277 0.143555 0.532227 -0.0814474 -0.923607 0.374588
-0.0849609 0.145992 0.532227 -0.053234 -0.984006 -0.169995
-0.077563 0.143555 0.532227 -0.0628439 -0.972842 0.222778
-0.0791016 0.143555 0.532504 -0.135164 -0.946922 0.291667
-0.0732422 0.14509 0.532227 0.0570769 -0.99837 0.000504342
-0.0673828 0.145808 0.532227 0.056105 -0.992415 -0.109379
-0.0615234 0.147621 0.532227 0.4881 -0.801048 0.346527
-0.0556641 0.147329 0.532227 0.389346 -0.817068 0.425217
-0.102539 0.143554 0.543945 -0.0614084 -0.996011 -0.0647403
-0.0966797 0.143382 0.543945 0.360214 -0.913716 0.188064
-0.0263672 0.137695 0.548884 -0.218432 -0.183761 -0.958394
-0.0205078 0.137695 0.547251 -0.0699894 -0.123433 -0.989882
-0.0146484 0.137695 0.546795 -0.0360649 -0.0103442 -0.999296
-0.00878906 0.137695 0.546201 0.188012 0.0620141 -0.980207
-0.00292969 0.137695 0.54721 0.190643 0.0723031 -0.978993
-0.0380859 0.120117 0.554652 -0.341179 -0.232294 -0.910844
-0.0322266 0.120117 0.552026 -0.195665 -0.119682 -0.97334
-0.0228119 0.120117 0.549805 -0.238482 -0.0895177 -0.967012
-0.0263672 0.120117 0.550683 -0.222302 -0.07655 -0.971968
-0.0439453 0.131836 0.555065 -0.362722 -0.161122 -0.917863
-0.0380859 0.131836 0.552645 -0.355981 -0.0840134 -0.930709
-0.0278025 0.131836 0.549805 -0.255064 -0.113698 -0.960216
-0.0322266 0.131836 0.550096 -0.115771 -0.0765694 -0.99032
-0.0380859 0.125977 0.553049 -0.340562 -0.109988 -0.933767
-0.0322266 0.125977 0.551256 -0.109479 -0.152544 -0.982214
-0.0242451 0.125977 0.549805 -0.242646 -0.179753 -0.953316
-0.0263672 0.130935 0.549805 -0.299665 -0.117633 -0.946765
-0.0263672 0.125977 0.550328 -0.265525 -0.150731 -0.952248
-0.100812 0.149414 0.532227 -0.505554 -0.456229 -0.732305
-0.102539 0.151448 0.532227 -0.504338 -0.372089 -0.779226
-0.102539 0.149414 0.533529 -0.49134 -0.472703 -0.73153
-0.0523598 0.149414 0.532227 0.114709 -0.992719 -0.0367433
-0.0556641 0.149414 0.535277 0.0137815 -0.999718 0.0193196
-0.0498047 0.151545 0.532227 0.0254291 -0.989516 -0.142167
-0.0439453 0.15225 0.532227 0.48939 -0.809877 0.323413
-0.0380859 0.152074 0.532227 0.67377 -0.689599 0.265493
-0.0439453 0.137695 0.553943 -0.298233 -0.239288 -0.924012
-0.0380859 0.137695 0.551761 -0.298329 -0.196806 -0.933952
-0.0313587 0.137695 0.549805 -0.186781 -0.242107 -0.952102
-0.0322266 0.138272 0.549805 -0.186677 -0.243626 -0.951734
-0.0322266 0.137695 0.549953 -0.181154 -0.233818 -0.955255
-0.0498047 0.120117 0.561356 -0.499687 -0.173298 -0.848694
-0.0396883 0.120117 0.555664 -0.387448 -0.258792 -0.884822
-0.0439453 0.120117 0.558127 -0.464434 -0.249308 -0.849792
-0.0978463 0.143555 0.538086 0.0790723 -0.996541 -0.0255532
-0.102539 0.146006 0.538086 -0.376337 -0.77225 -0.511859
-0.102539 0.143555 0.543939 -0.0616305 -0.995981 -0.064989
-0.090712 0.143555 0.538086 0.254054 -0.941609 0.220972
-0.0908203 0.143555 0.538205 0.259499 -0.941057 0.216962
-0.0849609 0.146422 0.538086 -0.0406935 -0.988924 -0.142733
-0.0791016 0.147517 0.538086 -0.119233 -0.972629 -0.19944
-0.0732422 0.14637 0.538086 0.00110049 -0.991335 -0.131354
-0.0673828 0.147081 0.538086 0.0560356 -0.987957 -0.144226
-0.0615234 0.147012 0.538086 0.778803 -0.62633 -0.0342991
-0.0451958 0.131836 0.555664 -0.381581 -0.179909 -0.906658
-0.0498047 0.131836 0.557923 -0.44339 -0.19214 -0.875492
-0.0498047 0.125977 0.559888 -0.473148 -0.23244 -0.849766
-0.0427275 0.125977 0.555664 -0.433777 -0.10901 -0.894402
-0.0439453 0.129176 0.555664 -0.400705 -0.151154 -0.903652
-0.0439453 0.125977 0.556392 -0.457926 -0.133898 -0.878849
-0.0500379 0.120117 0.561523 -0.503158 -0.169358 -0.847437
-0.0556641 0.120117 0.565331 -0.555837 -0.1334 -0.820518
-0.114258 0.149414 0.543465 -0.565517 -0.516102 -0.643296
-0.108356 0.149414 0.538086 -0.55649 -0.47252 -0.683406
-0.108398 0.149472 0.538086 -0.558384 -0.468505 -0.684624
-0.108398 0.149414 0.538121 -0.557193 -0.472355 -0.682947
-0.0581665 0.149414 0.538086 0.157196 -0.985714 -0.0604802
-0.0556641 0.151451 0.538086 0.0211964 -0.988985 -0.146491
-0.0498047 0.151545 0.538086 0.185281 -0.982636 -0.00987908
-0.0439453 0.151529 0.538086 0.698574 -0.710215 0.087116
-0.0615234 0.131836 0.566454 -0.590254 -0.219643 -0.776761
-0.0553668 0.131836 0.561523 -0.488738 -0.215237 -0.845463
-0.0556641 0.132431 0.561523 -0.486758 -0.213288 -0.847098
-0.0556641 0.131836 0.561711 -0.491153 -0.21797 -0.843361
-0.0556641 0.137695 0.559964 -0.447639 -0.176003 -0.876723
-0.047065 0.137695 0.555664 -0.402216 -0.239145 -0.88376
-0.0498047 0.137695 0.557089 -0.481416 -0.192797 -0.855025
-0.114258 0.149172 0.543945 -0.542657 -0.565494 -0.621079
-0.102542 0.143555 0.543945 -0.0616089 -0.99599 -0.0648724
-0.108398 0.146807 0.543945 -0.433855 -0.801263 -0.412004
-0.102539 0.143555 0.543967 -0.0607536 -0.996114 -0.0637705
-0.0962808 0.143555 0.543945 0.313212 -0.931726 0.183804
-0.0966797 0.143555 0.544965 0.355586 -0.926882 0.1202
-0.0908203 0.146152 0.543945 0.0154718 -0.999868 -0.00497322
-0.0849609 0.14749 0.543945 -0.134838 -0.988549 -0.0677416
-0.0791016 0.147356 0.543945 -0.0929277 -0.985643 -0.140973
-0.0673828 0.14664 0.543945 0.449546 -0.847171 0.283213
-0.0615234 0.146464 0.543945 0.6535 -0.724981 0.217579
-0.0322266 0.143555 0.548271 -0.166213 -0.303572 -0.938199
-0.0263672 0.143555 0.547161 -0.131188 -0.266357 -0.954905
-0.0205078 0.143555 0.54632 -0.0276194 -0.22068 -0.974955
-0.0146484 0.143555 0.545817 0.0863163 -0.176542 -0.980501
-0.00878906 0.143555 0.5465 0.250841 -0.0699216 -0.9655
-0.00292969 0.143555 0.547517 0.217544 0.00803932 -0.976017
0.00292969 0.143555 0.548994 0.445356 0.00729635 -0.895324
0.00292969 0.131836 0.547952 0.393269 0.124534 -0.91095
-0.0520542 0.125977 0.561523 -0.498233 -0.276614 -0.821735
-0.0556641 0.125977 0.563984 -0.504059 -0.300957 -0.809537
0.00292969 0.137695 0.548225 0.44618 0.0819532 -0.891183
0.00292969 0.125977 0.548228 0.295715 -0.0266311 -0.954905
0.00292969 0.149414 0.548872 0.468131 0.037074 -0.882881
0.00292969 0.120117 0.548371 0.222628 0.0439126 -0.973914
0.00878906 0.120117 0.549496 0.551814 0.126828 -0.824267
-0.0579758 0.120117 0.567383 -0.613579 -0.172344 -0.770596
-0.0615234 0.120117 0.570666 -0.570049 -0.254985 -0.781042
-0.114801 0.149414 0.543945 -0.566546 -0.513594 -0.644397
-0.120117 0.149414 0.549009 -0.64741 -0.427842 -0.630723
-0.0580345 0.149414 0.543945 0.104503 -0.987495 -0.118036
-0.0556641 0.151243 0.543945 0.14097 -0.988588 -0.0531244
-0.0498047 0.150856 0.543945 0.479811 -0.836392 0.26501
-0.0439453 0.151047 0.543945 0.413032 -0.880544 0.232479
-0.0380859 0.149414 0.548655 -0.306585 -0.220822 -0.925874
-0.0322266 0.149414 0.54637 -0.0618966 -0.110325 -0.991966
-0.0263672 0.149414 0.545662 -0.161988 -0.063331 -0.984758
-0.0205078 0.149414 0.544679 0.0249632 -0.085869 -0.995994
-0.0146484 0.149414 0.54502 0.085342 -0.0799137 -0.993142
-0.00878906 0.149414 0.545236 0.342965 -0.0779341 -0.936109
-0.00292969 0.149414 0.547645 0.256874 -0.0260878 -0.966093
-0.120117 0.143394 0.561523 0.243067 -0.963741 0.110095
-0.057602 0.137695 0.561523 -0.527675 -0.176964 -0.830808
-0.0615234 0.137695 0.564832 -0.594819 -0.187359 -0.78172
-0.0622894 0.131836 0.567383 -0.617307 -0.204512 -0.759676
-0.120117 0.149018 0.549805 -0.619152 -0.497847 -0.607288
-0.114258 0.146791 0.549805 -0.254172 -0.878552 -0.404406
-0.108398 0.146438 0.549805 -0.33306 -0.901251 -0.277162
-0.102539 0.143888 0.549805 -0.147089 -0.986476 0.0723247
-0.0966797 0.144669 0.549805 0.266463 -0.961425 -0.0682582
-0.0908203 0.147441 0.549805 0.141821 -0.98729 -0.0717318
-0.0732422 0.147078 0.549805 0.147028 -0.952493 0.26672
-0.0673828 0.146057 0.549805 0.602706 -0.753515 0.262604
-0.0615234 0.149338 0.549805 0.0729749 -0.997326 0.0040518
-0.0439453 0.143555 0.552002 -0.3112 -0.227966 -0.922597
-0.0365394 0.143555 0.549805 -0.277538 -0.320614 -0.905637
-0.0380859 0.145383 0.549805 -0.333562 -0.271804 -0.902695
-0.0380859 0.143555 0.550321 -0.314431 -0.302586 -0.899764
0.004565 0.143555 0.549805 0.470384 0.0277147 -0.882026
0.00878906 0.143555 0.551796 0.506315 0.0821752 -0.858424
0.0146484 0.143555 0.555086 0.68938 0.0790469 -0.720074
0.00798786 0.131836 0.549805 0.524885 0.119741 -0.842708
0.00878906 0.131836 0.550074 0.554929 0.0938377 -0.826589
0.0146484 0.131836 0.554687 0.564272 0.127067 -0.815752
-0.0602055 0.125977 0.567383 -0.565283 -0.276845 -0.777054
-0.0615234 0.128885 0.567383 -0.550256 -0.259089 -0.793783
-0.0615234 0.125977 0.568332 -0.531203 -0.273024 -0.802048
0.00818503 0.125977 0.549805 0.579504 0.00796543 -0.814931
0.00878906 0.125977 0.549984 0.605939 0.0125533 -0.795412
0.0146484 0.125977 0.554294 0.455119 0.0877968 -0.886092
0.00566316 0.137695 0.549805 0.440652 0.0646645 -0.895346
0.00878906 0.137695 0.551412 0.497433 0.0688037 -0.86477
0.0146484 0.137695 0.554652 0.667129 0.0886541 -0.739649
0.00470054 0.149414 0.549805 0.528553 0.0379923 -0.84805
0.00878906 0.149414 0.551965 0.564033 0.105648 -0.818966
0.0146484 0.149414 0.555644 0.694013 0.152134 -0.703705
0.00928426 0.120117 0.549805 0.537816 0.136362 -0.831961
0.00878906 0.123872 0.549805 0.593934 0.0533496 -0.802743
0.0146484 0.120117 0.553072 0.372521 0.252056 -0.893138
0.0205078 0.120117 0.555121 0.274616 0.330876 -0.902833
-0.0637791 0.120117 0.573242 -0.658611 -0.261789 -0.705478
-0.0673828 0.120117 0.577279 -0.779603 -0.155221 -0.606734
-0.0666962 0.131836 0.573242 -0.770105 -0.145441 -0.621117
-0.0673828 0.135206 0.573242 -0.750456 -0.241973 -0.615033
-0.0673828 0.131836 0.574188 -0.785666 -0.15027 -0.600124
-0.12049 0.149414 0.549805 -0.66349 -0.425313 -0.61554
-0.0613912 0.149414 0.549805 0.0752218 -0.997161 0.00353687
-0.0615234 0.149414 0.549979 0.0719656 -0.997319 0.0132607
-0.0556641 0.15046 0.549805 0.432491 -0.8611 0.267316
-0.0498047 0.150083 0.549805 0.618325 -0.765948 0.176061
-0.0498047 0.149414 0.553238 -0.313804 -0.49831 -0.808217
-0.0410962 0.149414 0.549805 -0.357789 -0.257586 -0.897572
-0.0439453 0.149414 0.550877 -0.431174 -0.173403 -0.885449
0.0152435 0.143555 0.555664 0.693623 0.0833062 -0.715505
0.0205078 0.143555 0.560517 0.723885 0.0831315 -0.684894
0.016342 0.131836 0.555664 0.537605 0.201322 -0.81881
0.0205078 0.131836 0.557861 0.452739 0.27001 -0.849778
0.0263672 0.131836 0.560957 0.564145 0.339706 -0.752556
-0.120117 0.142712 0.567383 0.45862 -0.875282 0.153457
-0.0634465 0.137695 0.567383 -0.622592 -0.203974 -0.755496
-0.0673828 0.137695 0.572534 -0.682673 -0.352333 -0.640171
0.0173765 0.125977 0.555664 0.433336 0.0980312 -0.895885
0.0205078 0.125977 0.557217 0.372014 0.200608 -0.90629
0.0263672 0.125977 0.55904 0.440221 0.357379 -0.823703
-0.120117 0.146505 0.555664 -0.450229 -0.86994 -0.201241
-0.120117 0.143555 0.561382 0.212224 -0.972089 0.100025
-0.114258 0.145115 0.555664 0.0184272 -0.999824 -0.00355854
-0.108398 0.145654 0.555664 -0.158097 -0.985507 -0.0615001
-0.102539 0.146449 0.555664 -0.0175402 -0.998293 -0.0557042
-0.0966797 0.144796 0.555664 0.34219 -0.925769 0.160803
-0.0732422 0.147375 0.555664 0.455989 -0.770959 0.444631
-0.0673828 0.146638 0.555664 0.348589 -0.854847 0.384346
-0.0556641 0.143555 0.558529 -0.443461 -0.256543 -0.858794
-0.0497975 0.143555 0.555664 -0.463441 -0.250983 -0.849841
-0.0498047 0.143566 0.555664 -0.463418 -0.251156 -0.849803
-0.0498047 0.143555 0.555669 -0.463614 -0.251092 -0.849714
0.0157771 0.137695 0.555664 0.653839 0.0981829 -0.750237
0.0205078 0.137695 0.559682 0.604331 0.307478 -0.735012
-0.0653327 0.125977 0.573242 -0.726582 -0.243016 -0.642668
-0.0673828 0.125977 0.576141 -0.793508 -0.219868 -0.567453
0.0146719 0.149414 0.555664 0.694438 0.152113 -0.703291
0.0146484 0.149512 0.555664 0.694116 0.152034 -0.703625
0.0205078 0.149414 0.561434 0.726473 0.202315 -0.656739
0.0222796 0.120117 0.555664 0.28565 0.330583 -0.899511
0.0205078 0.121671 0.555664 0.278171 0.303001 -0.911489
0.0263672 0.120117 0.556896 0.306637 0.393669 -0.866602
0.0322266 0.120117 0.558427 0.266254 0.503475 -0.821962
0.0380859 0.120117 0.559904 0.25562 0.55731 -0.789977
-0.0791016 0.120117 0.579891 -0.509623 0.765805 -0.392207
-0.0686038 0.120117 0.579102 -0.796504 -0.111846 -0.594198
0.0272205 0.131836 0.561523 0.523753 0.367795 -0.768381
0.0263672 0.133557 0.561523 0.591183 0.337092 -0.732715
0.0322266 0.131836 0.56466 0.407227 0.425541 -0.808134
0.0214108 0.143555 0.561523 0.699319 0.0744275 -0.710925
0.0263672 0.143555 0.566917 0.598877 0.170136 -0.78256
0.0321262 0.125977 0.561523 0.374994 0.459369 -0.805208
0.0322266 0.125977 0.561565 0.374507 0.460369 -0.804863
0.0380859 0.125977 0.564028 0.278797 0.521393 -0.806487
0.0439453 0.125977 0.565867 0.345301 0.578157 -0.739257
-0.069615 0.131836 0.579102 -0.854336 -0.155161 -0.496018
-0.0732422 0.131836 0.584622 -0.897788 0.244772 -0.366148
-0.0676117 0.137695 0.573242 -0.715441 -0.339892 -0.610424
0.0238217 0.137695 0.561523 0.546762 0.467516 -0.694608
0.0263672 0.137695 0.562873 0.549135 0.413262 -0.726406
-0.123052 0.149414 0.555664 -0.764249 -0.525503 -0.373858
-0.0849609 0.149414 0.558387 0.073888 -0.94347 0.323117
-0.0791016 0.149414 0.557586 -0.348332 -0.879831 0.323359
-0.0634234 0.149414 0.555664 0.022022 -0.866295 0.499048
-0.0673828 0.149414 0.559722 -0.701948 -0.623879 0.343575
-0.0615234 0.150174 0.555664 0.0522355 -0.672377 0.738364
-0.0615234 0.149414 0.561111 -0.428724 -0.3911 -0.814393
-0.0534277 0.149414 0.555664 0.216818 -0.776695 -0.591383
-0.0556641 0.149675 0.555664 0.373762 -0.874564 0.308934
-0.0556641 0.149414 0.557036 -0.0795445 -0.995474 0.0520057
-0.0693381 0.125977 0.579102 -0.811884 -0.232122 -0.53569
-0.0732422 0.125977 0.584301 -0.730287 -0.133125 -0.670044
-0.12021 0.143555 0.561523 0.214701 -0.971572 0.0997557
-0.119848 0.143555 0.561523 0.220526 -0.967201 0.126059
-0.114258 0.144666 0.561523 0.0243526 -0.999589 0.0151506
-0.108398 0.147075 0.561523 -0.118676 -0.992374 -0.0333028
-0.102539 0.146421 0.561523 0.108364 -0.986417 0.12345
-0.0966797 0.145509 0.561523 0.629486 -0.671505 0.390932
-0.0908203 0.148385 0.561523 0.322812 -0.820863 0.471144
-0.0594693 0.143555 0.561523 -0.541697 -0.250482 -0.802386
-0.0615234 0.148175 0.561523 -0.463085 -0.304872 -0.832229
-0.0615234 0.143555 0.563133 -0.580377 -0.250112 -0.774988
0.0205866 0.149414 0.561523 0.724857 0.204506 -0.657844
0.0205078 0.149801 0.561523 0.731397 0.197019 -0.652872
0.0263672 0.149414 0.567266 0.611633 0.285934 -0.737664
0.0322266 0.125895 0.561523 0.373523 0.461303 -0.804786
0.0432146 0.120117 0.561523 0.294875 0.549338 -0.781842
0.0380859 0.122436 0.561523 0.252229 0.554487 -0.793048
0.0439453 0.120117 0.561754 0.300826 0.548811 -0.779942
0.0498047 0.120117 0.564029 0.280456 0.551398 -0.785688
0.0556641 0.120117 0.566123 0.349155 0.527871 -0.774237
-0.0737832 0.120117 0.584961 -0.738627 -0.159145 -0.65506
-0.0791016 0.12121 0.584961 -0.704087 0.557413 -0.439945
-0.0728714 0.120117 0.584961 -0.746024 -0.130831 -0.65294
-0.0732422 0.122627 0.584961 -0.669625 -0.148258 -0.727751
-0.0732422 0.120117 0.585491 -0.737976 -0.155936 -0.656563
0.0380859 0.13138 0.567383 0.337012 0.480801 -0.809477
0.0477495 0.125977 0.567383 0.318837 0.634769 -0.703854
0.0439453 0.128109 0.567383 0.397161 0.547253 -0.736734
0.0498047 0.125977 0.568155 0.307479 0.656405 -0.688904
0.0556641 0.125977 0.570234 0.275705 0.678313 -0.681086
0.0615234 0.125977 0.572699 0.167474 0.657053 -0.735006
0.0270351 0.143555 0.567383 0.604703 0.178604 -0.776167
0.0322266 0.143555 0.570937 0.621274 0.299453 -0.724118
0.03756 0.131836 0.567383 0.347413 0.479584 -0.805794
0.0322266 0.13695 0.567383 0.465988 0.467669 -0.751093
0.0380859 0.131836 0.567643 0.336696 0.481517 -0.809183
0.0439453 0.131836 0.569973 0.468208 0.473842 -0.745825
0.0317316 0.137695 0.567383 0.481381 0.457588 -0.747586
0.0322266 0.137695 0.567775 0.475789 0.464951 -0.746623
0.0380859 0.137695 0.571056 0.407126 0.582653 -0.703395
-0.0697019 0.137695 0.579102 -0.849047 -0.246295 -0.467395
-0.0733243 0.131836 0.584961 -0.895097 0.259064 -0.362887
-0.0732422 0.132176 0.584961 -0.913637 0.206139 -0.350392
-0.0734191 0.125977 0.584961 -0.738063 -0.125175 -0.663018
-0.125402 0.149414 0.561523 -0.656845 -0.617447 -0.432797
-0.125977 0.150748 0.561523 -0.724417 -0.480507 -0.4943
-0.125977 0.149414 0.562278 -0.639544 -0.610146 -0.46766
-0.0889448 0.149414 0.561523 0.232315 -0.849113 0.474381
-0.0908203 0.149414 0.562807 0.345565 -0.876798 0.334381
-0.0849609 0.151294 0.561523 0.00761568 -0.621253 0.783573
-0.0749733 0.149414 0.561523 0.0904722 -0.920905 0.379141
-0.0791016 0.151917 0.561523 -0.570871 -0.522097 0.633657
-0.06912 0.149414 0.561523 0.0718362 -0.620122 -0.78121
-0.0732422 0.149414 0.563195 0.185449 -0.967955 0.169329
-0.0619665 0.149414 0.561523 -0.391075 -0.36376 -0.845423
-0.0673828 0.149414 0.566386 -0.587275 -0.42243 -0.690406
-0.122188 0.143555 0.567383 0.354092 -0.933739 0.052454
-0.125977 0.146521 0.567383 -0.258094 -0.819232 -0.5121
-0.125977 0.143555 0.569212 0.431975 -0.793391 -0.428868
-0.118829 0.143555 0.567383 0.250007 -0.963458 0.0961491
-0.120117 0.143555 0.570826 0.317928 -0.947893 0.020521
-0.114258 0.146572 0.567383 -0.146988 -0.988441 0.0371429
-0.108398 0.146674 0.567383 -0.102789 -0.989279 0.10374
-0.102539 0.147202 0.567383 0.362822 -0.896689 0.253594
-0.0966797 0.146451 0.567383 0.784935 -0.589575 0.19047
-0.0673218 0.143555 0.567383 -0.571988 -0.197135 -0.796221
-0.0673828 0.143787 0.567383 -0.571216 -0.205269 -0.794718
-0.0673828 0.143555 0.567426 -0.571767 -0.196996 -0.796414
0.0265163 0.149414 0.567383 0.613308 0.284849 -0.736692
0.0263672 0.149697 0.567383 0.611588 0.280814 -0.739664
0.0322266 0.149414 0.572253 0.674016 0.216078 -0.706409
0.0498047 0.124823 0.567383 0.29562 0.638993 -0.710138
0.05834 0.120117 0.567383 0.31369 0.523117 -0.792431
0.0556641 0.121859 0.567383 0.326695 0.578539 -0.747371
0.0615234 0.120117 0.568878 0.278359 0.506498 -0.816073
0.0673828 0.120117 0.571105 0.262946 0.49434 -0.828545
0.0732422 0.120117 0.572999 0.443816 0.452616 -0.773412
0.0356015 0.143555 0.573242 0.607475 0.403416 -0.684273
0.0380859 0.143555 0.574887 0.560844 0.479191 -0.675152
0.0439453 0.143555 0.578751 0.417829 0.606203 -0.67671
-0.081404 0.120117 0.59082 -0.538221 0.761452 -0.36126
-0.0849609 0.120117 0.593958 -0.431847 0.804812 -0.407169
-0.0791016 0.122896 0.59082 -0.81692 0.425026 -0.389864
-0.075786 0.125977 0.59082 -0.928603 -0.0756985 -0.363271
-0.0710118 0.137695 0.584961 -0.873924 -0.267062 -0.406121
-0.0732422 0.142129 0.584961 -0.81956 -0.370597 -0.437011
0.0436177 0.137695 0.573242 0.410833 0.615927 -0.672198
0.0380859 0.140836 0.573242 0.498034 0.494902 -0.712063
0.0439453 0.137695 0.573354 0.416121 0.613233 -0.671408
0.0498047 0.137695 0.577455 0.387144 0.564533 -0.728987
0.0498047 0.131754 0.573242 0.367946 0.561562 -0.741124
0.0556641 0.128884 0.573242 0.298834 0.636709 -0.710844
0.0632257 0.125977 0.573242 0.169003 0.633271 -0.755252
0.0615234 0.126517 0.573242 0.154833 0.662123 -0.733226
0.0673828 0.125977 0.574622 0.171509 0.552327 -0.815794
0.0732422 0.125977 0.576535 0.428634 0.42072 -0.799542
0.0496728 0.131836 0.573242 0.372005 0.559068 -0.740982
0.0439453 0.1375 0.573242 0.418501 0.611907 -0.671139
0.0498047 0.131836 0.573316 0.369121 0.561271 -0.740759
0.0556641 0.131836 0.575921 0.348137 0.618481 -0.704473
0.0615234 0.131836 0.578446 0.169499 0.686538 -0.707061
-0.0746732 0.131836 0.59082 -0.853334 0.293002 -0.431244
-0.0732422 0.136087 0.59082 -0.840499 -0.220622 -0.494862
-0.120986 0.143555 0.573242 0.260991 -0.965228 0.0147863
-0.120117 0.144377 0.573242 0.19263 -0.980573 -0.0370153
-0.114258 0.147057 0.573242 0.483593 -0.775553 0.405777
-0.108398 0.147076 0.573242 -0.472415 -0.68292 0.557176
-0.102539 0.147108 0.573242 0.628302 -0.704179 0.330708
-0.0966797 0.149107 0.573242 0.50016 -0.838817 0.215001
-0.0689125 0.143555 0.573242 -0.791275 -0.209393 -0.574489
-0.13062 0.149414 0.567383 -0.606497 -0.578097 -0.545862
-0.131836 0.150748 0.567383 -0.64932 -0.535449 -0.540072
-0.131836 0.149414 0.569367 -0.668874 -0.589125 -0.453364
-0.0945288 0.149414 0.567383 0.310318 -0.940025 0.14162
-0.0908203 0.151945 0.567383 0.810716 -0.565101 0.152975
-0.0675782 0.149414 0.567383 -0.587471 -0.402606 -0.701988
-0.0732422 0.152061 0.567383 0.607417 -0.303474 0.734131
0.0331322 0.149414 0.573242 0.679618 0.196979 -0.706625
0.0322266 0.151929 0.573242 0.63925 0.271684 -0.719407
0.0380859 0.149414 0.57823 0.72668 0.254473 -0.638106
0.0673828 0.123671 0.573242 0.246752 0.538278 -0.805835
0.0736501 0.120117 0.573242 0.445572 0.451366 -0.773133
0.0732422 0.120554 0.573242 0.442168 0.455712 -0.772537
0.0791016 0.120117 0.576407 0.497264 0.401215 -0.769256
-0.0849609 0.121903 0.59668 -0.484623 0.544494 -0.684593
-0.0791016 0.125729 0.59668 -0.705839 0.354785 -0.613122
-0.0849609 0.125977 0.601412 -0.611789 0.722557 -0.321911
-0.0788286 0.125977 0.59668 -0.732667 0.329948 -0.595259
-0.0791016 0.125977 0.59688 -0.710914 0.3557 -0.606695
0.0445756 0.143555 0.579102 0.40203 0.617918 -0.675684
0.0439453 0.143993 0.579102 0.429462 0.592828 -0.681261
0.0498047 0.143555 0.582099 0.257611 0.650885 -0.714132
0.0673828 0.131589 0.579102 0.0654933 0.74136 -0.667904
0.0778095 0.125977 0.579102 0.405214 0.392979 -0.825451
0.0732422 0.130669 0.579102 0.3226 0.646738 -0.691128
0.0791016 0.125977 0.579764 0.406904 0.368882 -0.835676
0.0849609 0.125977 0.583086 0.607775 0.282196 -0.742277
-0.0723002 0.137695 0.59082 -0.789156 -0.363713 -0.49492
-0.0732422 0.139195 0.59082 -0.749269 -0.39197 -0.533812
-0.0732422 0.137695 0.592289 -0.752867 -0.403984 -0.519604
-0.0755187 0.131836 0.59668 -0.91031 0.104453 -0.40053
-0.0791016 0.131836 0.601634 -0.858998 0.343857 -0.379321
0.0556641 0.135748 0.579102 0.349056 0.625979 -0.697359
0.0660969 0.131836 0.579102 0.0922323 0.742658 -0.663289
0.0615234 0.132527 0.579102 0.192887 0.670468 -0.716427
0.0673828 0.131836 0.579305 0.0657831 0.745596 -0.663143
0.0732422 0.131836 0.579722 0.284822 0.685083 -0.670476
0.0791016 0.131836 0.58282 0.218876 0.594185 -0.773975
