ply
format ascii 1.0
comment PCL generated
element vertex 849
property float x
property float y
property float z
property float nx
property float ny
property float nz
property float curvature
element camera 0
property float view_px
property float view_py
property float view_pz
property float x_axisx
property float x_axisy
property float x_axisz
property float y_axisx
property float y_axisy
property float y_axisz
property float z_axisx
property float z_axisy
property float z_axisz
property float focal
property float scalex
property float scaley
property float centerx
property float centery
property int viewportx
property int viewporty
property float k1
property float k2
end_header
0.12597699 -0.040590599 0.71972698 0 0 0 -1.0737418e+008
0.131321 -0.026367201 0.70800799 0 0 0 -1.0737418e+008
-0.0426507 -0.0556641 0.725586 0 0 0 -1.0737418e+008
-0.043945301 -0.053135201 0.725586 0 0 0 -1.0737418e+008
0.126672 -0.0322266 0.71386701 0 0 0 -1.0737418e+008
0.12597699 -0.0322266 0.71548498 0 0 0 -1.0737418e+008
-0.0469249 -0.049804699 0.725586 0 0 0 -1.0737418e+008
-0.049804699 -0.045417499 0.725586 0 0 0 -1.0737418e+008
-0.043945301 -0.049804699 0.729985 0 0 0 -1.0737418e+008
-0.0602834 -0.0380859 0.71972698 0 0 0 -1.0737418e+008
-0.0615234 -0.034131099 0.71972698 0 0 0 -1.0737418e+008
-0.0556641 -0.0380859 0.72379398 0 0 0 -1.0737418e+008
0.124268 -0.0556641 0.725586 0 0 0 -1.0737418e+008
0.12597699 -0.052334301 0.725586 0 0 0 -1.0737418e+008
-0.0716822 -0.026367201 0.71386701 0 0 0 -1.0737418e+008
-0.073242202 -0.024225701 0.71386701 0 0 0 -1.0737418e+008
-0.067382798 -0.026367201 0.71741098 0 0 0 -1.0737418e+008
-0.0509734 -0.043945301 0.725586 0 0 0 -1.0737418e+008
-0.049804699 -0.043945301 0.72779399 0 0 0 -1.0737418e+008
-0.0623459 -0.0322266 0.71972698 0 0 0 -1.0737418e+008
-0.0615234 -0.0322266 0.72065598 0 0 0 -1.0737418e+008
-0.0556641 -0.0322266 0.72414798 0 0 0 -1.0737418e+008
0.12511 -0.0380859 0.71972698 0 0 0 -1.0737418e+008
0.12757701 -0.049804699 0.725586 0 0 0 -1.0737418e+008
0.129209 -0.043945301 0.725586 0 0 0 -1.0737418e+008
0.12597699 -0.038659502 0.725586 0 0 0 -1.0737418e+008
0.126505 -0.026367201 0.71386701 0 0 0 -1.0737418e+008
0.12597699 -0.026367201 0.71527398 0 0 0 -1.0737418e+008
0.124091 -0.0322266 0.71972698 0 0 0 -1.0737418e+008
-0.0849609 -0.0556641 0.73607898 0 0 0 -1.0737418e+008
-0.0791016 -0.0556641 0.735075 0 0 0 -1.0737418e+008
-0.073242202 -0.0556641 0.73401397 0 0 0 -1.0737418e+008
-0.067382798 -0.0556641 0.73366803 0 0 0 -1.0737418e+008
-0.0615234 -0.0556641 0.73452801 0 0 0 -1.0737418e+008
-0.0556641 -0.0556641 0.73449498 0 0 0 -1.0737418e+008
-0.049804699 -0.0556641 0.73427403 0 0 0 -1.0737418e+008
-0.038209401 -0.0556641 0.73144501 0 0 0 -1.0737418e+008
-0.043945301 -0.0556641 0.73380101 0 0 0 -1.0737418e+008
-0.090820298 -0.049804699 0.737014 0 0 0 -1.0737418e+008
-0.0849609 -0.049804699 0.73588198 0 0 0 -1.0737418e+008
-0.0791016 -0.049804699 0.73446798 0 0 0 -1.0737418e+008
-0.073242202 -0.049804699 0.73304802 0 0 0 -1.0737418e+008
-0.067382798 -0.049804699 0.73321998 0 0 0 -1.0737418e+008
-0.0615234 -0.049804699 0.734308 0 0 0 -1.0737418e+008
-0.0556641 -0.049804699 0.73385799 0 0 0 -1.0737418e+008
-0.049804699 -0.049804699 0.73382998 0 0 0 -1.0737418e+008
-0.041845299 -0.049804699 0.73144501 0 0 0 -1.0737418e+008
-0.043945301 -0.0467561 0.73144501 0 0 0 -1.0737418e+008
-0.043945301 -0.049804699 0.73361498 0 0 0 -1.0737418e+008
-0.051985599 -0.0380859 0.725586 0 0 0 -1.0737418e+008
-0.049804699 -0.0380859 0.72971803 0 0 0 -1.0737418e+008
0.125929 -0.0556641 0.73144501 0 0 0 -1.0737418e+008
0.12597699 -0.0555497 0.73144501 0 0 0 -1.0737418e+008
0.12597699 -0.0556641 0.73161298 0 0 0 -1.0737418e+008
-0.090820298 -0.043945301 0.73646098 0 0 0 -1.0737418e+008
-0.0849609 -0.043945301 0.73513901 0 0 0 -1.0737418e+008
-0.0791016 -0.043945301 0.73311102 0 0 0 -1.0737418e+008
-0.073242202 -0.043945301 0.73173499 0 0 0 -1.0737418e+008
-0.067382798 -0.043945301 0.733325 0 0 0 -1.0737418e+008
-0.0615234 -0.043945301 0.733248 0 0 0 -1.0737418e+008
-0.0556641 -0.043945301 0.73373199 0 0 0 -1.0737418e+008
-0.046073899 -0.043945301 0.73144501 0 0 0 -1.0737418e+008
-0.049804699 -0.043945301 0.73382902 0 0 0 -1.0737418e+008
0.125361 -0.0380859 0.725586 0 0 0 -1.0737418e+008
0.12597699 -0.0380859 0.72632599 0 0 0 -1.0737418e+008
-0.0629889 -0.026367201 0.71972698 0 0 0 -1.0737418e+008
-0.0615234 -0.026367201 0.72138399 0 0 0 -1.0737418e+008
-0.0556641 -0.026367201 0.72356898 0 0 0 -1.0737418e+008
-0.052128799 -0.0322266 0.725586 0 0 0 -1.0737418e+008
0.12890901 -0.049804699 0.73144501 0 0 0 -1.0737418e+008
0.130798 -0.043945301 0.73144501 0 0 0 -1.0737418e+008
0.131836 -0.043945301 0.73357803 0 0 0 -1.0737418e+008
0.124557 -0.026367201 0.71972698 0 0 0 -1.0737418e+008
0.12597699 -0.022445999 0.71972698 0 0 0 -1.0737418e+008
0.12597699 -0.026367201 0.72367001 0 0 0 -1.0737418e+008
0.125081 -0.0322266 0.725586 0 0 0 -1.0737418e+008
0.12597699 -0.0288908 0.725586 0 0 0 -1.0737418e+008
0.12597699 -0.0322266 0.72653699 0 0 0 -1.0737418e+008
-0.096679702 -0.0380859 0.73594201 0 0 0 -1.0737418e+008
-0.090820298 -0.0380859 0.73572999 0 0 0 -1.0737418e+008
-0.0849609 -0.0380859 0.73383403 0 0 0 -1.0737418e+008
-0.0791016 -0.0380859 0.73250002 0 0 0 -1.0737418e+008
-0.073242202 -0.0380859 0.73278999 0 0 0 -1.0737418e+008
-0.067382798 -0.0380859 0.733455 0 0 0 -1.0737418e+008
-0.0615234 -0.0380859 0.73334599 0 0 0 -1.0737418e+008
-0.0556641 -0.0380859 0.73447597 0 0 0 -1.0737418e+008
-0.047596499 -0.0380859 0.73144501 0 0 0 -1.0737418e+008
-0.049804699 -0.032736301 0.73144501 0 0 0 -1.0737418e+008
-0.049804699 -0.0380859 0.73269397 0 0 0 -1.0737418e+008
-0.087341197 -0.0556641 0.73730499 0 0 0 -1.0737418e+008
-0.090820298 -0.050641499 0.73730499 0 0 0 -1.0737418e+008
-0.090820298 -0.0556641 0.73931003 0 0 0 -1.0737418e+008
-0.091120496 -0.049804699 0.73730499 0 0 0 -1.0737418e+008
-0.096679702 -0.049804699 0.74114799 0 0 0 -1.0737418e+008
0.128842 -0.0556641 0.73730499 0 0 0 -1.0737418e+008
0.131836 -0.0556641 0.74119198 0 0 0 -1.0737418e+008
0.129006 -0.0380859 0.73144501 0 0 0 -1.0737418e+008
0.131836 -0.0380859 0.73423803 0 0 0 -1.0737418e+008
-0.102539 -0.043945301 0.74306202 0 0 0 -1.0737418e+008
-0.094762199 -0.043945301 0.73730499 0 0 0 -1.0737418e+008
-0.096679702 -0.0428495 0.73730499 0 0 0 -1.0737418e+008
-0.096679702 -0.043945301 0.737688 0 0 0 -1.0737418e+008
-0.052935399 -0.026367201 0.725586 0 0 0 -1.0737418e+008
-0.0556641 -0.022718901 0.725586 0 0 0 -1.0737418e+008
-0.102539 -0.0322266 0.736745 0 0 0 -1.0737418e+008
-0.096679702 -0.0322266 0.73475403 0 0 0 -1.0737418e+008
-0.090820298 -0.0322266 0.73357499 0 0 0 -1.0737418e+008
-0.0849609 -0.0322266 0.73306799 0 0 0 -1.0737418e+008
-0.0791016 -0.0322266 0.73323601 0 0 0 -1.0737418e+008
-0.073242202 -0.0322266 0.73171401 0 0 0 -1.0737418e+008
-0.067382798 -0.0322266 0.73311001 0 0 0 -1.0737418e+008
-0.0615234 -0.0322266 0.73366499 0 0 0 -1.0737418e+008
-0.0502536 -0.0322266 0.73144501 0 0 0 -1.0737418e+008
-0.0556641 -0.0322266 0.73267001 0 0 0 -1.0737418e+008
0.13443901 -0.043945301 0.73730499 0 0 0 -1.0737418e+008
0.137695 -0.043945301 0.73923397 0 0 0 -1.0737418e+008
0.13152801 -0.049804699 0.73730499 0 0 0 -1.0737418e+008
0.131836 -0.049192999 0.73730499 0 0 0 -1.0737418e+008
0.131836 -0.049804699 0.73756301 0 0 0 -1.0737418e+008
0.126711 -0.026367201 0.725586 0 0 0 -1.0737418e+008
0.131836 -0.026367201 0.73122299 0 0 0 -1.0737418e+008
0.129766 -0.0322266 0.73144501 0 0 0 -1.0737418e+008
0.131836 -0.0267689 0.73144501 0 0 0 -1.0737418e+008
0.131836 -0.0322266 0.73302501 0 0 0 -1.0737418e+008
0.137695 -0.0322266 0.73694098 0 0 0 -1.0737418e+008
-0.099312797 -0.0380859 0.73730499 0 0 0 -1.0737418e+008
-0.102539 -0.0334934 0.73730499 0 0 0 -1.0737418e+008
-0.102539 -0.0380859 0.73891097 0 0 0 -1.0737418e+008
0.133369 -0.0556641 0.743164 0 0 0 -1.0737418e+008
0.137695 -0.0556641 0.74661601 0 0 0 -1.0737418e+008
-0.093983702 -0.0556641 0.743164 0 0 0 -1.0737418e+008
-0.096679702 -0.0527164 0.743164 0 0 0 -1.0737418e+008
-0.096679702 -0.0556641 0.74557602 0 0 0 -1.0737418e+008
-0.098500997 -0.049804699 0.743164 0 0 0 -1.0737418e+008
-0.102539 -0.044045001 0.743164 0 0 0 -1.0737418e+008
-0.102539 -0.049804699 0.74781698 0 0 0 -1.0737418e+008
0.13713101 -0.0380859 0.73730499 0 0 0 -1.0737418e+008
0.137695 -0.035445999 0.73730499 0 0 0 -1.0737418e+008
0.137695 -0.0380859 0.737616 0 0 0 -1.0737418e+008
0.143555 -0.0380859 0.74096298 0 0 0 -1.0737418e+008
-0.102617 -0.043945301 0.743164 0 0 0 -1.0737418e+008
0.14299101 -0.043945301 0.743164 0 0 0 -1.0737418e+008
0.143555 -0.0432516 0.743164 0 0 0 -1.0737418e+008
0.143555 -0.043945301 0.743496 0 0 0 -1.0737418e+008
0.149414 -0.043945301 0.74752599 0 0 0 -1.0737418e+008
-0.102539 -0.026367201 0.73439097 0 0 0 -1.0737418e+008
-0.096679702 -0.026367201 0.73286003 0 0 0 -1.0737418e+008
-0.090820298 -0.0224621 0.73144501 0 0 0 -1.0737418e+008
-0.090820298 -0.026367201 0.732315 0 0 0 -1.0737418e+008
-0.0849609 -0.0209061 0.73144501 0 0 0 -1.0737418e+008
-0.0849609 -0.026367201 0.73291397 0 0 0 -1.0737418e+008
-0.0791016 -0.026367201 0.73155499 0 0 0 -1.0737418e+008
-0.073242202 -0.026367201 0.73244399 0 0 0 -1.0737418e+008
-0.067382798 -0.026367201 0.73274302 0 0 0 -1.0737418e+008
-0.0615234 -0.026367201 0.732669 0 0 0 -1.0737418e+008
-0.053076901 -0.026367201 0.73144501 0 0 0 -1.0737418e+008
-0.0556641 -0.023587501 0.73144501 0 0 0 -1.0737418e+008
-0.0556641 -0.026367201 0.73220301 0 0 0 -1.0737418e+008
-0.103183 -0.0322266 0.73730499 0 0 0 -1.0737418e+008
-0.108398 -0.0322266 0.74306297 0 0 0 -1.0737418e+008
0.13709 -0.049804699 0.743164 0 0 0 -1.0737418e+008
0.137695 -0.049203198 0.743164 0 0 0 -1.0737418e+008
0.137695 -0.049804699 0.74353302 0 0 0 -1.0737418e+008
0.143555 -0.049804699 0.74653399 0 0 0 -1.0737418e+008
0.13200501 -0.026367201 0.73144501 0 0 0 -1.0737418e+008
0.137695 -0.026367201 0.73448902 0 0 0 -1.0737418e+008
-0.105236 -0.0380859 0.743164 0 0 0 -1.0737418e+008
-0.108398 -0.032299601 0.743164 0 0 0 -1.0737418e+008
-0.108398 -0.0380859 0.747365 0 0 0 -1.0737418e+008
0.138212 -0.0322266 0.73730499 0 0 0 -1.0737418e+008
0.143555 -0.0322266 0.73956603 0 0 0 -1.0737418e+008
-0.103533 -0.049804699 0.74902302 0 0 0 -1.0737418e+008
-0.10672 -0.043945301 0.74902302 0 0 0 -1.0737418e+008
-0.108398 -0.041074902 0.74902302 0 0 0 -1.0737418e+008
-0.108398 -0.043945301 0.75328898 0 0 0 -1.0737418e+008
0.140487 -0.0556641 0.74902302 0 0 0 -1.0737418e+008
0.143555 -0.0532328 0.74902302 0 0 0 -1.0737418e+008
0.143555 -0.0556641 0.75043499 0 0 0 -1.0737418e+008
0.149414 -0.0556641 0.75362498 0 0 0 -1.0737418e+008
0.14634199 -0.0380859 0.743164 0 0 0 -1.0737418e+008
0.149414 -0.0380859 0.74533999 0 0 0 -1.0737418e+008
0.15527301 -0.0380859 0.74832499 0 0 0 -1.0737418e+008
-0.099051401 -0.0556641 0.74902302 0 0 0 -1.0737418e+008
-0.102539 -0.051051099 0.74902302 0 0 0 -1.0737418e+008
0.151536 -0.043945301 0.74902302 0 0 0 -1.0737418e+008
0.15527301 -0.039531901 0.74902302 0 0 0 -1.0737418e+008
0.15527301 -0.043945301 0.75118101 0 0 0 -1.0737418e+008
0.16113301 -0.043945301 0.75444299 0 0 0 -1.0737418e+008
-0.108449 -0.0322266 0.743164 0 0 0 -1.0737418e+008
-0.106805 -0.026367201 0.73730499 0 0 0 -1.0737418e+008
-0.108398 -0.0244813 0.73730499 0 0 0 -1.0737418e+008
-0.108398 -0.026367201 0.73851901 0 0 0 -1.0737418e+008
0.14640801 -0.049804699 0.74902302 0 0 0 -1.0737418e+008
0.149414 -0.046246201 0.74902302 0 0 0 -1.0737418e+008
0.149414 -0.049804699 0.75074399 0 0 0 -1.0737418e+008
0.15527301 -0.049804699 0.754637 0 0 0 -1.0737418e+008
-0.109598 -0.0380859 0.74902302 0 0 0 -1.0737418e+008
0.14135499 -0.026367201 0.73730499 0 0 0 -1.0737418e+008
0.143555 -0.022913801 0.73730499 0 0 0 -1.0737418e+008
0.143555 -0.026367201 0.73854601 0 0 0 -1.0737418e+008
0.149414 -0.026367201 0.740646 0 0 0 -1.0737418e+008
0.148728 -0.0322266 0.743164 0 0 0 -1.0737418e+008
0.149414 -0.0313433 0.743164 0 0 0 -1.0737418e+008
0.149414 -0.0322266 0.74366599 0 0 0 -1.0737418e+008
0.15527301 -0.0322266 0.74568403 0 0 0 -1.0737418e+008
-0.106373 -0.049804699 0.75488299 0 0 0 -1.0737418e+008
-0.108398 -0.045646802 0.75488299 0 0 0 -1.0737418e+008
-0.109039 -0.043945301 0.75488299 0 0 0 -1.0737418e+008
-0.108398 -0.043945301 0.759754 0 0 0 -1.0737418e+008
-0.102358 -0.0556641 0.75488299 0 0 0 -1.0737418e+008
-0.102539 -0.055387001 0.75488299 0 0 0 -1.0737418e+008
0.152301 -0.0556641 0.75488299 0 0 0 -1.0737418e+008
0.15527301 -0.050746299 0.75488299 0 0 0 -1.0737418e+008
0.15527301 -0.0556641 0.75624001 0 0 0 -1.0737418e+008
0.156179 -0.0380859 0.74902302 0 0 0 -1.0737418e+008
0.16113301 -0.0380859 0.752464 0 0 0 -1.0737418e+008
-0.111594 -0.0322266 0.74902302 0 0 0 -1.0737418e+008
-0.114258 -0.027811101 0.74902302 0 0 0 -1.0737418e+008
-0.114258 -0.0322266 0.75399101 0 0 0 -1.0737418e+008
-0.11124 -0.026367201 0.743164 0 0 0 -1.0737418e+008
-0.114258 -0.0224158 0.743164 0 0 0 -1.0737418e+008
-0.114258 -0.026367201 0.74781698 0 0 0 -1.0737418e+008
0.161955 -0.043945301 0.75488299 0 0 0 -1.0737418e+008
0.16699199 -0.043945301 0.75991499 0 0 0 -1.0737418e+008
0.15586001 -0.049804699 0.75488299 0 0 0 -1.0737418e+008
0.16113301 -0.044924598 0.75488299 0 0 0 -1.0737418e+008
0.16113301 -0.049804699 0.757608 0 0 0 -1.0737418e+008
-0.111885 -0.0380859 0.75488299 0 0 0 -1.0737418e+008
-0.114258 -0.033932399 0.75488299 0 0 0 -1.0737418e+008
-0.106168 -0.049804699 0.76074201 0 0 0 -1.0737418e+008
-0.108262 -0.043945301 0.76074201 0 0 0 -1.0737418e+008
-0.108398 -0.043587599 0.76074201 0 0 0 -1.0737418e+008
0.152959 -0.026367201 0.743164 0 0 0 -1.0737418e+008
0.15527301 -0.021784199 0.743164 0 0 0 -1.0737418e+008
0.15527301 -0.026367201 0.74489802 0 0 0 -1.0737418e+008
0.16113301 -0.026367201 0.74801803 0 0 0 -1.0737418e+008
-0.102034 -0.0556641 0.76074201 0 0 0 -1.0737418e+008
-0.102539 -0.0549821 0.76074201 0 0 0 -1.0737418e+008
0.158888 -0.0322266 0.74902302 0 0 0 -1.0737418e+008
0.16113301 -0.027964501 0.74902302 0 0 0 -1.0737418e+008
0.16113301 -0.0322266 0.751261 0 0 0 -1.0737418e+008
0.15866201 -0.0556641 0.76074201 0 0 0 -1.0737418e+008
0.16113301 -0.052440301 0.76074201 0 0 0 -1.0737418e+008
0.16113301 -0.0556641 0.76494598 0 0 0 -1.0737418e+008
0.165141 -0.0380859 0.75488299 0 0 0 -1.0737418e+008
0.16699199 -0.0380859 0.75658798 0 0 0 -1.0737418e+008
-0.115055 -0.026367201 0.74902302 0 0 0 -1.0737418e+008
-0.114765 -0.0322266 0.75488299 0 0 0 -1.0737418e+008
-0.114258 -0.0322266 0.75948101 0 0 0 -1.0737418e+008
0.167348 -0.043945301 0.76074201 0 0 0 -1.0737418e+008
-0.111232 -0.0380859 0.76074201 0 0 0 -1.0737418e+008
0.163063 -0.049804699 0.76074201 0 0 0 -1.0737418e+008
0.16699199 -0.044410799 0.76074201 0 0 0 -1.0737418e+008
-0.106901 -0.043945301 0.76660198 0 0 0 -1.0737418e+008
-0.108398 -0.041190598 0.76660198 0 0 0 -1.0737418e+008
-0.104268 -0.049804699 0.76660198 0 0 0 -1.0737418e+008
-0.102539 -0.049804699 0.76919901 0 0 0 -1.0737418e+008
0.16217799 -0.026367201 0.74902302 0 0 0 -1.0737418e+008
0.16699199 -0.026367201 0.75329798 0 0 0 -1.0737418e+008
-0.099669598 -0.0556641 0.76660198 0 0 0 -1.0737418e+008
-0.102539 -0.052044202 0.76660198 0 0 0 -1.0737418e+008
-0.096679702 -0.0556641 0.77001703 0 0 0 -1.0737418e+008
0.16221499 -0.0556641 0.76660198 0 0 0 -1.0737418e+008
0.166208 -0.0322266 0.75488299 0 0 0 -1.0737418e+008
0.16699199 -0.0305798 0.75488299 0 0 0 -1.0737418e+008
0.16699199 -0.0322266 0.75554198 0 0 0 -1.0737418e+008
-0.116805 -0.026367201 0.75488299 0 0 0 -1.0737418e+008
0.16959301 -0.0380859 0.76074201 0 0 0 -1.0737418e+008
-0.114051 -0.0322266 0.76074201 0 0 0 -1.0737418e+008
-0.114258 -0.031817999 0.76074201 0 0 0 -1.0737418e+008
-0.109865 -0.0380859 0.76660198 0 0 0 -1.0737418e+008
-0.108398 -0.0380859 0.76876098 0 0 0 -1.0737418e+008
0.165264 -0.049804699 0.76660198 0 0 0 -1.0737418e+008
0.16699199 -0.0474138 0.76660198 0 0 0 -1.0737418e+008
0.16699199 -0.049804699 0.77091497 0 0 0 -1.0737418e+008
0.16900501 -0.043945301 0.76660198 0 0 0 -1.0737418e+008
-0.103056 -0.043945301 0.772461 0 0 0 -1.0737418e+008
-0.102539 -0.043945301 0.77298802 0 0 0 -1.0737418e+008
-0.096679702 -0.043945301 0.77727199 0 0 0 -1.0737418e+008
-0.099453203 -0.049804699 0.772461 0 0 0 -1.0737418e+008
-0.102539 -0.044709601 0.772461 0 0 0 -1.0737418e+008
-0.096679702 -0.049804699 0.77486002 0 0 0 -1.0737418e+008
-0.094818398 -0.0556641 0.772461 0 0 0 -1.0737418e+008
-0.096679702 -0.052638199 0.772461 0 0 0 -1.0737418e+008
-0.090820298 -0.0556641 0.77662301 0 0 0 -1.0737418e+008
0.169098 -0.026367201 0.75488299 0 0 0 -1.0737418e+008
0.17285199 -0.026367201 0.757963 0 0 0 -1.0737418e+008
0.164168 -0.0556641 0.772461 0 0 0 -1.0737418e+008
0.16699199 -0.0509343 0.772461 0 0 0 -1.0737418e+008
0.1728 -0.0322266 0.76074201 0 0 0 -1.0737418e+008
0.17285199 -0.032129001 0.76074201 0 0 0 -1.0737418e+008
0.17285199 -0.0322266 0.76085401 0 0 0 -1.0737418e+008
-0.116837 -0.026367201 0.76074201 0 0 0 -1.0737418e+008
-0.112236 -0.0322266 0.76660198 0 0 0 -1.0737418e+008
-0.114258 -0.028104199 0.76660198 0 0 0 -1.0737418e+008
0.171134 -0.0380859 0.76660198 0 0 0 -1.0737418e+008
0.17285199 -0.035554498 0.76660198 0 0 0 -1.0737418e+008
0.17285199 -0.0380859 0.77091002 0 0 0 -1.0737418e+008
0.16764399 -0.049804699 0.772461 0 0 0 -1.0737418e+008
-0.105991 -0.0380859 0.772461 0 0 0 -1.0737418e+008
-0.108398 -0.032678999 0.772461 0 0 0 -1.0737418e+008
-0.102539 -0.0380859 0.77577198 0 0 0 -1.0737418e+008
0.170946 -0.043945301 0.772461 0 0 0 -1.0737418e+008
0.17285199 -0.0398136 0.772461 0 0 0 -1.0737418e+008
-0.095638603 -0.043945301 0.77832001 0 0 0 -1.0737418e+008
-0.096679702 -0.042578001 0.77832001 0 0 0 -1.0737418e+008
-0.090820298 -0.043945301 0.78202498 0 0 0 -1.0737418e+008
-0.0922902 -0.049804699 0.77832001 0 0 0 -1.0737418e+008
-0.090820298 -0.049804699 0.77943802 0 0 0 -1.0737418e+008
-0.0849609 -0.049804699 0.78225201 0 0 0 -1.0737418e+008
0.17478199 -0.026367201 0.76074201 0 0 0 -1.0737418e+008
-0.088462502 -0.0556641 0.77832001 0 0 0 -1.0737418e+008
-0.090820298 -0.0517992 0.77832001 0 0 0 -1.0737418e+008
-0.0849609 -0.0556641 0.78081799 0 0 0 -1.0737418e+008
-0.0791016 -0.0556641 0.78280097 0 0 0 -1.0737418e+008
0.020507799 -0.0556641 0.78246403 0 0 0 -1.0737418e+008
0.026367201 -0.0556641 0.77973402 0 0 0 -1.0737418e+008
0.0322266 -0.0556641 0.77871698 0 0 0 -1.0737418e+008
0.0380859 -0.0556641 0.78006399 0 0 0 -1.0737418e+008
0.043945301 -0.0556641 0.78156501 0 0 0 -1.0737418e+008
0.049804699 -0.0556641 0.78201401 0 0 0 -1.0737418e+008
0.0556641 -0.0556641 0.78383201 0 0 0 -1.0737418e+008
0.16603 -0.0556641 0.77832001 0 0 0 -1.0737418e+008
0.16699199 -0.0538656 0.77832001 0 0 0 -1.0737418e+008
0.17454401 -0.0322266 0.76660198 0 0 0 -1.0737418e+008
-0.115176 -0.026367201 0.76660198 0 0 0 -1.0737418e+008
-0.114258 -0.026367201 0.76772302 0 0 0 -1.0737418e+008
-0.108669 -0.0322266 0.772461 0 0 0 -1.0737418e+008
-0.108398 -0.0322266 0.77280998 0 0 0 -1.0737418e+008
-0.102539 -0.0322266 0.77759099 0 0 0 -1.0737418e+008
0.020507799 -0.049804699 0.782453 0 0 0 -1.0737418e+008
0.026367201 -0.049804699 0.780007 0 0 0 -1.0737418e+008
0.0322266 -0.049804699 0.78008902 0 0 0 -1.0737418e+008
0.0380859 -0.049804699 0.781555 0 0 0 -1.0737418e+008
0.043945301 -0.049804699 0.78269899 0 0 0 -1.0737418e+008
0.049804699 -0.049804699 0.78317702 0 0 0 -1.0737418e+008
0.16892099 -0.049804699 0.77832001 0 0 0 -1.0737418e+008
-0.100007 -0.0380859 0.77832001 0 0 0 -1.0737418e+008
-0.096679702 -0.0380859 0.78142399 0 0 0 -1.0737418e+008
0.173546 -0.0380859 0.772461 0 0 0 -1.0737418e+008
0.020507799 -0.043945301 0.78283101 0 0 0 -1.0737418e+008
0.026367201 -0.043945301 0.78159899 0 0 0 -1.0737418e+008
0.0322266 -0.043945301 0.78197497 0 0 0 -1.0737418e+008
0.0380859 -0.043945301 0.78328902 0 0 0 -1.0737418e+008
0.043945301 -0.043945301 0.78399903 0 0 0 -1.0737418e+008
0.171979 -0.043945301 0.77832001 0 0 0 -1.0737418e+008
0.17285199 -0.042025801 0.77832001 0 0 0 -1.0737418e+008
-0.0812544 -0.049804699 0.78417999 0 0 0 -1.0737418e+008
-0.0849609 -0.046068501 0.78417999 0 0 0 -1.0737418e+008
-0.0791016 -0.049804699 0.78566498 0 0 0 -1.0737418e+008
-0.073242202 -0.049804699 0.78750801 0 0 0 -1.0737418e+008
-0.067382798 -0.049804699 0.788243 0 0 0 -1.0737418e+008
-0.0615234 -0.049804699 0.788203 0 0 0 -1.0737418e+008
-0.0556641 -0.049804699 0.78939998 0 0 0 -1.0737418e+008
-0.049804699 -0.049804699 0.78978902 0 0 0 -1.0737418e+008
-0.086941101 -0.043945301 0.78417999 0 0 0 -1.0737418e+008
-0.090820298 -0.038346302 0.78417999 0 0 0 -1.0737418e+008
-0.0849609 -0.043945301 0.78557098 0 0 0 -1.0737418e+008
-0.0791016 -0.043945301 0.78756797 0 0 0 -1.0737418e+008
-0.073242202 -0.043945301 0.78891897 0 0 0 -1.0737418e+008
0.176154 -0.026367201 0.76660198 0 0 0 -1.0737418e+008
-0.075558104 -0.0556641 0.78417999 0 0 0 -1.0737418e+008
-0.0791016 -0.052477598 0.78417999 0 0 0 -1.0737418e+008
-0.073242202 -0.0556641 0.785478 0 0 0 -1.0737418e+008
-0.067382798 -0.0556641 0.78705502 0 0 0 -1.0737418e+008
-0.0615234 -0.0556641 0.78695202 0 0 0 -1.0737418e+008
-0.0556641 -0.0556641 0.78812402 0 0 0 -1.0737418e+008
-0.049804699 -0.0556641 0.78928399 0 0 0 -1.0737418e+008
-0.043945301 -0.0556641 0.78958601 0 0 0 -1.0737418e+008
-0.0380859 -0.0556641 0.78971797 0 0 0 -1.0737418e+008
0.0087890597 -0.0556641 0.788257 0 0 0 -1.0737418e+008
0.0172287 -0.0556641 0.78417999 0 0 0 -1.0737418e+008
0.0146484 -0.0556641 0.78534698 0 0 0 -1.0737418e+008
0.0562004 -0.0556641 0.78417999 0 0 0 -1.0737418e+008
0.0556641 -0.054417402 0.78417999 0 0 0 -1.0737418e+008
0.0615234 -0.0556641 0.78691399 0 0 0 -1.0737418e+008
0.067382798 -0.0556641 0.78922701 0 0 0 -1.0737418e+008
0.090820298 -0.0556641 0.78975999 0 0 0 -1.0737418e+008
0.096679702 -0.0556641 0.78993499 0 0 0 -1.0737418e+008
0.16504499 -0.0556641 0.78417999 0 0 0 -1.0737418e+008
0.16699199 -0.0516655 0.78417999 0 0 0 -1.0737418e+008
0.175909 -0.0322266 0.772461 0 0 0 -1.0737418e+008
-0.111244 -0.026367201 0.772461 0 0 0 -1.0737418e+008
-0.114258 -0.020736899 0.772461 0 0 0 -1.0737418e+008
-0.108398 -0.026367201 0.77575701 0 0 0 -1.0737418e+008
-0.101919 -0.0322266 0.77832001 0 0 0 -1.0737418e+008
-0.102539 -0.031396698 0.77832001 0 0 0 -1.0737418e+008
-0.096679702 -0.0322266 0.78280902 0 0 0 -1.0737418e+008
0.0087890597 -0.049804699 0.78898799 0 0 0 -1.0737418e+008
0.018128 -0.049804699 0.78417999 0 0 0 -1.0737418e+008
0.0146484 -0.049804699 0.78614098 0 0 0 -1.0737418e+008
0.052682001 -0.049804699 0.78417999 0 0 0 -1.0737418e+008
0.049804699 -0.044214498 0.78417999 0 0 0 -1.0737418e+008
0.0556641 -0.049804699 0.785317 0 0 0 -1.0737418e+008
0.0615234 -0.049804699 0.78866202 0 0 0 -1.0737418e+008
0.168016 -0.049804699 0.78417999 0 0 0 -1.0737418e+008
0.16699199 -0.049804699 0.78590202 0 0 0 -1.0737418e+008
-0.0910616 -0.0380859 0.78417999 0 0 0 -1.0737418e+008
-0.090820298 -0.0380859 0.78433299 0 0 0 -1.0737418e+008
-0.0849609 -0.0380859 0.78696197 0 0 0 -1.0737418e+008
-0.0791016 -0.0380859 0.78933901 0 0 0 -1.0737418e+008
0.020507799 -0.0380859 0.78396302 0 0 0 -1.0737418e+008
0.026367201 -0.0380859 0.78357399 0 0 0 -1.0737418e+008
0.174629 -0.0380859 0.77832001 0 0 0 -1.0737418e+008
0.0087890597 -0.043945301 0.78960103 0 0 0 -1.0737418e+008
0.018234501 -0.043945301 0.78417999 0 0 0 -1.0737418e+008
0.0146484 -0.043945301 0.786035 0 0 0 -1.0737418e+008
0.0322266 -0.0380974 0.78417999 0 0 0 -1.0737418e+008
0.0380859 -0.039935902 0.78417999 0 0 0 -1.0737418e+008
0.048697598 -0.043945301 0.78417999 0 0 0 -1.0737418e+008
0.043945301 -0.042940099 0.78417999 0 0 0 -1.0737418e+008
0.049804699 -0.043945301 0.78423703 0 0 0 -1.0737418e+008
0.0556641 -0.043945301 0.786452 0 0 0 -1.0737418e+008
0.170821 -0.043945301 0.78417999 0 0 0 -1.0737418e+008
0.17285199 -0.040074501 0.78417999 0 0 0 -1.0737418e+008
-0.067382798 -0.044519398 0.790039 0 0 0 -1.0737418e+008
-0.0615234 -0.0442493 0.790039 0 0 0 -1.0737418e+008
-0.0556641 -0.045966499 0.790039 0 0 0 -1.0737418e+008
-0.0478191 -0.049804699 0.790039 0 0 0 -1.0737418e+008
-0.049804699 -0.048591699 0.790039 0 0 0 -1.0737418e+008
-0.043945301 -0.049804699 0.79036403 0 0 0 -1.0737418e+008
-0.0380859 -0.049804699 0.79048097 0 0 0 -1.0737418e+008
-0.0322266 -0.049804699 0.79069501 0 0 0 -1.0737418e+008
-0.068241701 -0.043945301 0.790039 0 0 0 -1.0737418e+008
-0.073242202 -0.040010199 0.790039 0 0 0 -1.0737418e+008
-0.067382798 -0.043945301 0.79020602 0 0 0 -1.0737418e+008
-0.0615234 -0.043945301 0.790133 0 0 0 -1.0737418e+008
-0.0556641 -0.043945301 0.79035699 0 0 0 -1.0737418e+008
-0.049804699 -0.043945301 0.790896 0 0 0 -1.0737418e+008
-0.043945301 -0.043945301 0.79084599 0 0 0 -1.0737418e+008
-0.0380859 -0.043945301 0.79132003 0 0 0 -1.0737418e+008
-0.0322266 -0.043945301 0.79193097 0 0 0 -1.0737418e+008
-0.026367201 -0.043945301 0.79237598 0 0 0 -1.0737418e+008
0.17753699 -0.026367201 0.772461 0 0 0 -1.0737418e+008
0.178711 -0.022664901 0.772461 0 0 0 -1.0737418e+008
0.178711 -0.026367201 0.77734798 0 0 0 -1.0737418e+008
-0.043945301 -0.0530723 0.790039 0 0 0 -1.0737418e+008
-0.033114102 -0.0556641 0.790039 0 0 0 -1.0737418e+008
-0.0380859 -0.053891301 0.790039 0 0 0 -1.0737418e+008
-0.0322266 -0.0556641 0.79006797 0 0 0 -1.0737418e+008
0.17691199 -0.0322266 0.77832001 0 0 0 -1.0737418e+008
0.178711 -0.027032699 0.77832001 0 0 0 -1.0737418e+008
0.00621974 -0.0556641 0.790039 0 0 0 -1.0737418e+008
0.0029296901 -0.0556641 0.79226297 0 0 0 -1.0737418e+008
0.070919298 -0.0556641 0.790039 0 0 0 -1.0737418e+008
0.067382798 -0.0531784 0.790039 0 0 0 -1.0737418e+008
0.073242202 -0.0556641 0.79049897 0 0 0 -1.0737418e+008
0.0791016 -0.0556641 0.79110801 0 0 0 -1.0737418e+008
0.089383103 -0.0556641 0.790039 0 0 0 -1.0737418e+008
0.0849609 -0.0556641 0.79327399 0 0 0 -1.0737418e+008
0.090820298 -0.054849401 0.790039 0 0 0 -1.0737418e+008
0.090820298 -0.0556641 0.79037303 0 0 0 -1.0737418e+008
0.096965201 -0.0556641 0.790039 0 0 0 -1.0737418e+008
0.096679702 -0.055335902 0.790039 0 0 0 -1.0737418e+008
0.102539 -0.0556641 0.791291 0 0 0 -1.0737418e+008
0.108398 -0.0556641 0.79264897 0 0 0 -1.0737418e+008
0.15527301 -0.0556641 0.793823 0 0 0 -1.0737418e+008
0.162275 -0.0556641 0.790039 0 0 0 -1.0737418e+008
0.16113301 -0.0556641 0.79123598 0 0 0 -1.0737418e+008
-0.106298 -0.026367201 0.77832001 0 0 0 -1.0737418e+008
-0.102539 -0.026367201 0.78160697 0 0 0 -1.0737418e+008
-0.094894297 -0.0322266 0.78417999 0 0 0 -1.0737418e+008
-0.096679702 -0.0297228 0.78417999 0 0 0 -1.0737418e+008
-0.090820298 -0.0322266 0.787193 0 0 0 -1.0737418e+008
-0.0849609 -0.0322266 0.78846902 0 0 0 -1.0737418e+008
0.0054390398 -0.049804699 0.790039 0 0 0 -1.0737418e+008
0.0029296901 -0.049804699 0.79112297 0 0 0 -1.0737418e+008
0.064605102 -0.049804699 0.790039 0 0 0 -1.0737418e+008
0.0615234 -0.0453339 0.790039 0 0 0 -1.0737418e+008
0.067382798 -0.049804699 0.79105002 0 0 0 -1.0737418e+008
0.073242202 -0.049804699 0.792184 0 0 0 -1.0737418e+008
0.0791016 -0.049804699 0.79247802 0 0 0 -1.0737418e+008
0.0849609 -0.049804699 0.79227298 0 0 0 -1.0737418e+008
0.090820298 -0.049804699 0.791601 0 0 0 -1.0737418e+008
0.096679702 -0.049804699 0.79153502 0 0 0 -1.0737418e+008
0.102539 -0.049804699 0.79252499 0 0 0 -1.0737418e+008
0.108398 -0.049804699 0.79447001 0 0 0 -1.0737418e+008
0.15527301 -0.049804699 0.79448903 0 0 0 -1.0737418e+008
0.164592 -0.049804699 0.790039 0 0 0 -1.0737418e+008
0.16113301 -0.049804699 0.795259 0 0 0 -1.0737418e+008
0.16699199 -0.044699799 0.790039 0 0 0 -1.0737418e+008
-0.075841501 -0.0380859 0.790039 0 0 0 -1.0737418e+008
-0.0791016 -0.035909802 0.790039 0 0 0 -1.0737418e+008
-0.073242202 -0.0380859 0.79053801 0 0 0 -1.0737418e+008
-0.067382798 -0.0380859 0.79124898 0 0 0 -1.0737418e+008
-0.0615234 -0.0380859 0.79136902 0 0 0 -1.0737418e+008
-0.0556641 -0.0380859 0.79191798 0 0 0 -1.0737418e+008
-0.049804699 -0.0380859 0.79258502 0 0 0 -1.0737418e+008
-0.043945301 -0.0380859 0.792422 0 0 0 -1.0737418e+008
-0.0380859 -0.0380859 0.79284298 0 0 0 -1.0737418e+008
-0.0322266 -0.0380859 0.793414 0 0 0 -1.0737418e+008
-0.026367201 -0.0380859 0.79314101 0 0 0 -1.0737418e+008
-0.0029296901 -0.0380859 0.79416698 0 0 0 -1.0737418e+008
0.0201927 -0.0380859 0.78417999 0 0 0 -1.0737418e+008
0.0146484 -0.0380859 0.78727502 0 0 0 -1.0737418e+008
0.020507799 -0.036717501 0.78417999 0 0 0 -1.0737418e+008
0.032169301 -0.0380859 0.78417999 0 0 0 -1.0737418e+008
0.026367201 -0.034455702 0.78417999 0 0 0 -1.0737418e+008
0.0322266 -0.0380859 0.78418398 0 0 0 -1.0737418e+008
0.0380859 -0.0380859 0.78459901 0 0 0 -1.0737418e+008
0.043945301 -0.0380859 0.78517097 0 0 0 -1.0737418e+008
0.049804699 -0.0380859 0.78579998 0 0 0 -1.0737418e+008
0.0556641 -0.0380859 0.788252 0 0 0 -1.0737418e+008
0.173952 -0.0380859 0.78417999 0 0 0 -1.0737418e+008
0.17285199 -0.0380859 0.785833 0 0 0 -1.0737418e+008
-0.026513301 -0.049804699 0.79589802 0 0 0 -1.0737418e+008
-0.0322266 -0.049804699 0.79958802 0 0 0 -1.0737418e+008
-0.026367201 -0.049529701 0.79589802 0 0 0 -1.0737418e+008
0.000303626 -0.049804699 0.79589802 0 0 0 -1.0737418e+008
-0.0029296901 -0.049804699 0.80161899 0 0 0 -1.0737418e+008
0.178948 -0.026367201 0.77832001 0 0 0 -1.0737418e+008
0.0072190799 -0.043945301 0.790039 0 0 0 -1.0737418e+008
0.0029296901 -0.043945301 0.791713 0 0 0 -1.0737418e+008
0.0087890597 -0.040873099 0.790039 0 0 0 -1.0737418e+008
0.0607857 -0.043945301 0.790039 0 0 0 -1.0737418e+008
0.0615234 -0.043945301 0.79039901 0 0 0 -1.0737418e+008
0.067382798 -0.043945301 0.79314703 0 0 0 -1.0737418e+008
0.073242202 -0.043945301 0.79403001 0 0 0 -1.0737418e+008
0.0791016 -0.043945301 0.79424399 0 0 0 -1.0737418e+008
0.0849609 -0.043945301 0.793908 0 0 0 -1.0737418e+008
0.090820298 -0.043945301 0.79328901 0 0 0 -1.0737418e+008
0.096679702 -0.043945301 0.79452902 0 0 0 -1.0737418e+008
0.102539 -0.043945301 0.79488701 0 0 0 -1.0737418e+008
0.16113301 -0.043945301 0.79396701 0 0 0 -1.0737418e+008
0.167376 -0.043945301 0.790039 0 0 0 -1.0737418e+008
0.16699199 -0.043945301 0.790434 0 0 0 -1.0737418e+008
-0.028490899 -0.0556641 0.79589802 0 0 0 -1.0737418e+008
-0.0322266 -0.0556641 0.79929602 0 0 0 -1.0737418e+008
0.00097823096 -0.0556641 0.79589802 0 0 0 -1.0737418e+008
0.0146484 -0.0322266 0.78871697 0 0 0 -1.0737418e+008
0.020507799 -0.0322266 0.78502601 0 0 0 -1.0737418e+008
0.026367201 -0.0322266 0.78448898 0 0 0 -1.0737418e+008
0.0322266 -0.0322266 0.78525901 0 0 0 -1.0737418e+008
0.0380859 -0.0322266 0.785115 0 0 0 -1.0737418e+008
0.043945301 -0.0322266 0.78580499 0 0 0 -1.0737418e+008
0.049804699 -0.0322266 0.787283 0 0 0 -1.0737418e+008
0.17664599 -0.0322266 0.78417999 0 0 0 -1.0737418e+008
0.178711 -0.026830001 0.78417999 0 0 0 -1.0737418e+008
-0.023509599 -0.043945301 0.79589802 0 0 0 -1.0737418e+008
-0.026367201 -0.043945301 0.79785103 0 0 0 -1.0737418e+008
-0.00164902 -0.043945301 0.79589802 0 0 0 -1.0737418e+008
-0.0029296901 -0.0417585 0.79589802 0 0 0 -1.0737418e+008
-0.0029296901 -0.043945301 0.79671597 0 0 0 -1.0737418e+008
-0.099147901 -0.026367201 0.78417999 0 0 0 -1.0737418e+008
-0.096679702 -0.026367201 0.78624898 0 0 0 -1.0737418e+008
-0.090820298 -0.026367201 0.78817499 0 0 0 -1.0737418e+008
0.085729703 -0.0556641 0.79589802 0 0 0 -1.0737418e+008
0.0849609 -0.0556641 0.79716003 0 0 0 -1.0737418e+008
0.093848199 -0.0556641 0.79589802 0 0 0 -1.0737418e+008
0.090820298 -0.052779 0.79589802 0 0 0 -1.0737418e+008
0.096679702 -0.0556641 0.79713798 0 0 0 -1.0737418e+008
0.102539 -0.0556641 0.79789001 0 0 0 -1.0737418e+008
0.112218 -0.0556641 0.79589802 0 0 0 -1.0737418e+008
0.108398 -0.0556641 0.79732603 0 0 0 -1.0737418e+008
0.152841 -0.0556641 0.79589802 0 0 0 -1.0737418e+008
0.149414 -0.0556641 0.79958999 0 0 0 -1.0737418e+008
-0.081260398 -0.0322266 0.790039 0 0 0 -1.0737418e+008
-0.0849609 -0.028427999 0.790039 0 0 0 -1.0737418e+008
-0.0791016 -0.0322266 0.79096198 0 0 0 -1.0737418e+008
-0.073242202 -0.0322266 0.79206598 0 0 0 -1.0737418e+008
-0.067382798 -0.0322266 0.79338598 0 0 0 -1.0737418e+008
-0.0615234 -0.0322266 0.79289901 0 0 0 -1.0737418e+008
-0.0556641 -0.0322266 0.793392 0 0 0 -1.0737418e+008
-0.049804699 -0.0322266 0.79314297 0 0 0 -1.0737418e+008
-0.043945301 -0.0322266 0.79372299 0 0 0 -1.0737418e+008
-0.0380859 -0.0322266 0.79388797 0 0 0 -1.0737418e+008
-0.0322266 -0.0322266 0.79413801 0 0 0 -1.0737418e+008
-0.026367201 -0.0322266 0.79509002 0 0 0 -1.0737418e+008
-0.0029296901 -0.0322266 0.79545599 0 0 0 -1.0737418e+008
0.0849609 -0.049804699 0.79961902 0 0 0 -1.0737418e+008
0.090820298 -0.049804699 0.79792899 0 0 0 -1.0737418e+008
0.096679702 -0.049804699 0.79760802 0 0 0 -1.0737418e+008
0.102539 -0.049804699 0.79717702 0 0 0 -1.0737418e+008
0.111117 -0.049804699 0.79589802 0 0 0 -1.0737418e+008
0.108398 -0.044589501 0.79589802 0 0 0 -1.0737418e+008
0.108398 -0.049804699 0.796372 0 0 0 -1.0737418e+008
0.153859 -0.049804699 0.79589802 0 0 0 -1.0737418e+008
0.149414 -0.049804699 0.79999 0 0 0 -1.0737418e+008
0.15527301 -0.046255901 0.79589802 0 0 0 -1.0737418e+008
-0.0231415 -0.0380859 0.79589802 0 0 0 -1.0737418e+008
-0.026367201 -0.0380859 0.79808998 0 0 0 -1.0737418e+008
-0.0045410399 -0.0380859 0.79589802 0 0 0 -1.0737418e+008
0.0029296901 -0.0380859 0.79226297 0 0 0 -1.0737418e+008
0.0095706005 -0.0380859 0.790039 0 0 0 -1.0737418e+008
0.0087890597 -0.0380859 0.79046899 0 0 0 -1.0737418e+008
0.057750501 -0.0380859 0.790039 0 0 0 -1.0737418e+008
0.0556641 -0.034374099 0.790039 0 0 0 -1.0737418e+008
0.0615234 -0.0380859 0.79240102 0 0 0 -1.0737418e+008
0.067382798 -0.0380859 0.794963 0 0 0 -1.0737418e+008
0.073242202 -0.0380859 0.79538298 0 0 0 -1.0737418e+008
0.0791016 -0.0380859 0.79544598 0 0 0 -1.0737418e+008
0.0849609 -0.0380859 0.79514098 0 0 0 -1.0737418e+008
0.090820298 -0.0380859 0.79498601 0 0 0 -1.0737418e+008
0.096679702 -0.0380859 0.79485399 0 0 0 -1.0737418e+008
0.102539 -0.0380859 0.79531699 0 0 0 -1.0737418e+008
0.16113301 -0.0380859 0.79457998 0 0 0 -1.0737418e+008
0.170443 -0.0380859 0.790039 0 0 0 -1.0737418e+008
0.16699199 -0.0380859 0.79573101 0 0 0 -1.0737418e+008
0.17285199 -0.033761401 0.790039 0 0 0 -1.0737418e+008
0.0146484 -0.026367201 0.789123 0 0 0 -1.0737418e+008
0.020507799 -0.026367201 0.786538 0 0 0 -1.0737418e+008
0.026367201 -0.026367201 0.78581101 0 0 0 -1.0737418e+008
0.0322266 -0.026367201 0.78616297 0 0 0 -1.0737418e+008
0.0380859 -0.026367201 0.78649402 0 0 0 -1.0737418e+008
0.043945301 -0.026367201 0.78730398 0 0 0 -1.0737418e+008
0.049804699 -0.026367201 0.78891301 0 0 0 -1.0737418e+008
0.178884 -0.026367201 0.78417999 0 0 0 -1.0737418e+008
0.178711 -0.026367201 0.78451502 0 0 0 -1.0737418e+008
-0.043945301 -0.049804699 0.80608302 0 0 0 -1.0737418e+008
-0.0346733 -0.049804699 0.80175799 0 0 0 -1.0737418e+008
-0.0380859 -0.049804699 0.80458701 0 0 0 -1.0737418e+008
-0.0322266 -0.0458294 0.80175799 0 0 0 -1.0737418e+008
-0.0030053901 -0.049804699 0.80175799 0 0 0 -1.0737418e+008
-0.0615234 -0.0556641 0.80570298 0 0 0 -1.0737418e+008
-0.0556641 -0.0556641 0.80524498 0 0 0 -1.0737418e+008
-0.049804699 -0.0556641 0.805044 0 0 0 -1.0737418e+008
-0.043945301 -0.0556641 0.804506 0 0 0 -1.0737418e+008
-0.036968399 -0.0556641 0.80175799 0 0 0 -1.0737418e+008
-0.0380859 -0.0556641 0.80277598 0 0 0 -1.0737418e+008
-0.0010099401 -0.0556641 0.80175799 0 0 0 -1.0737418e+008
-0.0029296901 -0.049920298 0.80175799 0 0 0 -1.0737418e+008
-0.0029296901 -0.0556641 0.80623001 0 0 0 -1.0737418e+008
0.0029296901 -0.0322266 0.79396898 0 0 0 -1.0737418e+008
0.0113274 -0.0322266 0.790039 0 0 0 -1.0737418e+008
0.0087890597 -0.0322266 0.79127401 0 0 0 -1.0737418e+008
0.054057501 -0.0322266 0.790039 0 0 0 -1.0737418e+008
0.0556641 -0.0322266 0.79089803 0 0 0 -1.0737418e+008
0.0615234 -0.0322266 0.79409099 0 0 0 -1.0737418e+008
0.102539 -0.0322266 0.79568499 0 0 0 -1.0737418e+008
0.16699199 -0.0322266 0.794218 0 0 0 -1.0737418e+008
0.173778 -0.0322266 0.790039 0 0 0 -1.0737418e+008
0.17285199 -0.0322266 0.79133099 0 0 0 -1.0737418e+008
0.0849609 -0.043945301 0.79896802 0 0 0 -1.0737418e+008
0.090820298 -0.043945301 0.79764599 0 0 0 -1.0737418e+008
0.096679702 -0.043945301 0.79677403 0 0 0 -1.0737418e+008
0.107397 -0.043945301 0.79589802 0 0 0 -1.0737418e+008
0.102539 -0.043945301 0.79701799 0 0 0 -1.0737418e+008
0.108398 -0.043945301 0.797306 0 0 0 -1.0737418e+008
0.114258 -0.043945301 0.80034101 0 0 0 -1.0737418e+008
0.120117 -0.043945301 0.79872102 0 0 0 -1.0737418e+008
0.12597699 -0.043945301 0.79866302 0 0 0 -1.0737418e+008
0.156881 -0.043945301 0.79589802 0 0 0 -1.0737418e+008
0.15527301 -0.043945301 0.79669702 0 0 0 -1.0737418e+008
0.083155498 -0.0556641 0.80175799 0 0 0 -1.0737418e+008
0.14705899 -0.0556641 0.80175799 0 0 0 -1.0737418e+008
-0.086266398 -0.026367201 0.790039 0 0 0 -1.0737418e+008
-0.090820298 -0.0220604 0.790039 0 0 0 -1.0737418e+008
-0.0849609 -0.026367201 0.79082602 0 0 0 -1.0737418e+008
-0.0791016 -0.026367201 0.79248798 0 0 0 -1.0737418e+008
-0.073242202 -0.026367201 0.79341 0 0 0 -1.0737418e+008
-0.067382798 -0.026367201 0.793639 0 0 0 -1.0737418e+008
-0.0615234 -0.026367201 0.79397899 0 0 0 -1.0737418e+008
-0.0556641 -0.026367201 0.79439503 0 0 0 -1.0737418e+008
-0.049804699 -0.026367201 0.79446799 0 0 0 -1.0737418e+008
-0.043945301 -0.026367201 0.794815 0 0 0 -1.0737418e+008
-0.0380859 -0.026367201 0.79586202 0 0 0 -1.0737418e+008
-0.0322266 -0.026367201 0.795596 0 0 0 -1.0737418e+008
-0.0380859 -0.043945301 0.805619 0 0 0 -1.0737418e+008
-0.030987101 -0.043945301 0.80175799 0 0 0 -1.0737418e+008
-0.0322266 -0.043945301 0.80301201 0 0 0 -1.0737418e+008
-0.0058752298 -0.043945301 0.80175799 0 0 0 -1.0737418e+008
-0.024602201 -0.0322266 0.79589802 0 0 0 -1.0737418e+008
-0.026367201 -0.0272309 0.79589802 0 0 0 -1.0737418e+008
-0.026367201 -0.0322266 0.79735798 0 0 0 -1.0737418e+008
-0.0044450802 -0.0322266 0.79589802 0 0 0 -1.0737418e+008
-0.0029296901 -0.0298589 0.79589802 0 0 0 -1.0737418e+008
0.083583698 -0.049804699 0.80175799 0 0 0 -1.0737418e+008
0.108398 -0.044139698 0.80175799 0 0 0 -1.0737418e+008
0.114258 -0.044231702 0.80175799 0 0 0 -1.0737418e+008
0.120117 -0.0453806 0.80175799 0 0 0 -1.0737418e+008
0.12597699 -0.045516498 0.80175799 0 0 0 -1.0737418e+008
0.147844 -0.049804699 0.80175799 0 0 0 -1.0737418e+008
0.149414 -0.046729099 0.80175799 0 0 0 -1.0737418e+008
-0.0380859 -0.0380859 0.80666298 0 0 0 -1.0737418e+008
-0.029436 -0.0380859 0.80175799 0 0 0 -1.0737418e+008
-0.0322266 -0.0380859 0.803927 0 0 0 -1.0737418e+008
-0.0070587401 -0.0380859 0.80175799 0 0 0 -1.0737418e+008
0.0029296901 -0.026367201 0.79538703 0 0 0 -1.0737418e+008
0.0127625 -0.026367201 0.790039 0 0 0 -1.0737418e+008
0.0087890597 -0.026367201 0.79230899 0 0 0 -1.0737418e+008
0.051297899 -0.026367201 0.790039 0 0 0 -1.0737418e+008
0.049804699 -0.022911901 0.790039 0 0 0 -1.0737418e+008
0.0556641 -0.026367201 0.79315299 0 0 0 -1.0737418e+008
0.16699199 -0.026367201 0.7949 0 0 0 -1.0737418e+008
0.175923 -0.026367201 0.790039 0 0 0 -1.0737418e+008
0.17285199 -0.026367201 0.79441702 0 0 0 -1.0737418e+008
0.067382798 -0.0344791 0.79589802 0 0 0 -1.0737418e+008
0.073242202 -0.035859499 0.79589802 0 0 0 -1.0737418e+008
0.0791016 -0.035765301 0.79589802 0 0 0 -1.0737418e+008
0.0849609 -0.035597101 0.79589802 0 0 0 -1.0737418e+008
0.090820298 -0.035211202 0.79589802 0 0 0 -1.0737418e+008
0.090820298 -0.0380859 0.79685003 0 0 0 -1.0737418e+008
0.096679702 -0.032657702 0.79589802 0 0 0 -1.0737418e+008
0.105363 -0.0380859 0.79589802 0 0 0 -1.0737418e+008
0.108398 -0.0380859 0.79685998 0 0 0 -1.0737418e+008
0.114258 -0.0380859 0.79781801 0 0 0 -1.0737418e+008
0.120117 -0.0380859 0.798168 0 0 0 -1.0737418e+008
0.12597699 -0.0380859 0.79916 0 0 0 -1.0737418e+008
0.131836 -0.0380859 0.80143303 0 0 0 -1.0737418e+008
0.149414 -0.0380859 0.80051702 0 0 0 -1.0737418e+008
0.15858901 -0.0380859 0.79589802 0 0 0 -1.0737418e+008
0.15527301 -0.0380859 0.80072302 0 0 0 -1.0737418e+008
0.16113301 -0.0345935 0.79589802 0 0 0 -1.0737418e+008
-0.067382798 -0.049804699 0.81287903 0 0 0 -1.0737418e+008
-0.0615234 -0.049804699 0.80776799 0 0 0 -1.0737418e+008
-0.0556641 -0.049804699 0.808541 0 0 0 -1.0737418e+008
-0.046300799 -0.049804699 0.80761701 0 0 0 -1.0737418e+008
-0.049804699 -0.049804699 0.80992901 0 0 0 -1.0737418e+008
-0.043945301 -0.0476784 0.80761701 0 0 0 -1.0737418e+008
-0.0052341199 -0.049804699 0.80761701 0 0 0 -1.0737418e+008
0.081095897 -0.0556641 0.80761701 0 0 0 -1.0737418e+008
0.14466999 -0.0556641 0.80761701 0 0 0 -1.0737418e+008
0.065849401 -0.0322266 0.79589802 0 0 0 -1.0737418e+008
0.0615234 -0.027041599 0.79589802 0 0 0 -1.0737418e+008
0.067382798 -0.0322266 0.79639602 0 0 0 -1.0737418e+008
0.073242202 -0.0322266 0.79680902 0 0 0 -1.0737418e+008
0.0791016 -0.0322266 0.79668897 0 0 0 -1.0737418e+008
0.0849609 -0.0322266 0.79688501 0 0 0 -1.0737418e+008
0.090820298 -0.0322266 0.797732 0 0 0 -1.0737418e+008
0.098225802 -0.0322266 0.79589802 0 0 0 -1.0737418e+008
0.096679702 -0.0322266 0.795991 0 0 0 -1.0737418e+008
0.103122 -0.0322266 0.79589802 0 0 0 -1.0737418e+008
0.102539 -0.0306486 0.79589802 0 0 0 -1.0737418e+008
0.108398 -0.0322266 0.79815298 0 0 0 -1.0737418e+008
0.114258 -0.0322266 0.79853702 0 0 0 -1.0737418e+008
0.120117 -0.0322266 0.80037498 0 0 0 -1.0737418e+008
0.12597699 -0.0322266 0.80025202 0 0 0 -1.0737418e+008
0.131836 -0.0322266 0.79974598 0 0 0 -1.0737418e+008
0.162672 -0.0322266 0.79589802 0 0 0 -1.0737418e+008
0.16113301 -0.0322266 0.79652101 0 0 0 -1.0737418e+008
-0.064131401 -0.0556641 0.80761701 0 0 0 -1.0737418e+008
-0.067382798 -0.0556641 0.80973601 0 0 0 -1.0737418e+008
-0.0615234 -0.050144002 0.80761701 0 0 0 -1.0737418e+008
-0.0556641 -0.050888099 0.80761701 0 0 0 -1.0737418e+008
-0.049804699 -0.052253 0.80761701 0 0 0 -1.0737418e+008
-0.0039287801 -0.0556641 0.80761701 0 0 0 -1.0737418e+008
-0.0087890597 -0.0556641 0.813214 0 0 0 -1.0737418e+008
0.083368301 -0.043945301 0.80175799 0 0 0 -1.0737418e+008
0.0849609 -0.041122701 0.80175799 0 0 0 -1.0737418e+008
0.096679702 -0.040724602 0.80175799 0 0 0 -1.0737418e+008
0.107616 -0.043945301 0.80175799 0 0 0 -1.0737418e+008
0.102539 -0.0413667 0.80175799 0 0 0 -1.0737418e+008
0.108398 -0.043945301 0.80198199 0 0 0 -1.0737418e+008
0.114258 -0.043945301 0.802019 0 0 0 -1.0737418e+008
0.120117 -0.043945301 0.80318898 0 0 0 -1.0737418e+008
0.128168 -0.043945301 0.80175799 0 0 0 -1.0737418e+008
0.12597699 -0.043945301 0.80339003 0 0 0 -1.0737418e+008
0.131836 -0.0382929 0.80175799 0 0 0 -1.0737418e+008
0.150758 -0.043945301 0.80175799 0 0 0 -1.0737418e+008
0.149414 -0.0400391 0.80175799 0 0 0 -1.0737418e+008
0.149414 -0.043945301 0.80402398 0 0 0 -1.0737418e+008
-0.0556641 -0.021379801 0.79589802 0 0 0 -1.0737418e+008
-0.049804699 -0.021623399 0.79589802 0 0 0 -1.0737418e+008
-0.043945301 -0.0225724 0.79589802 0 0 0 -1.0737418e+008
-0.0380859 -0.026225699 0.79589802 0 0 0 -1.0737418e+008
-0.028318301 -0.026367201 0.79589802 0 0 0 -1.0737418e+008
-0.0322266 -0.0251294 0.79589802 0 0 0 -1.0737418e+008
-0.026367201 -0.026367201 0.796206 0 0 0 -1.0737418e+008
-0.0087890597 -0.026367201 0.79989898 0 0 0 -1.0737418e+008
0.00048494301 -0.026367201 0.79589802 0 0 0 -1.0737418e+008
-0.0029296901 -0.026367201 0.796763 0 0 0 -1.0737418e+008
-0.027759399 -0.0322266 0.80175799 0 0 0 -1.0737418e+008
-0.0322266 -0.0322266 0.80443299 0 0 0 -1.0737418e+008
-0.026367201 -0.029350599 0.80175799 0 0 0 -1.0737418e+008
-0.0086603202 -0.0322266 0.80175799 0 0 0 -1.0737418e+008
-0.0087890597 -0.0313535 0.80175799 0 0 0 -1.0737418e+008
-0.0087890597 -0.0322266 0.801929 0 0 0 -1.0737418e+008
-0.0615234 -0.043945301 0.81173998 0 0 0 -1.0737418e+008
-0.0556641 -0.043945301 0.81124699 0 0 0 -1.0737418e+008
-0.049804699 -0.043945301 0.81071198 0 0 0 -1.0737418e+008
-0.040768102 -0.043945301 0.80761701 0 0 0 -1.0737418e+008
-0.043945301 -0.043945301 0.80984402 0 0 0 -1.0737418e+008
-0.0063059302 -0.043945301 0.80761701 0 0 0 -1.0737418e+008
-0.0087890597 -0.043945301 0.81251901 0 0 0 -1.0737418e+008
0.082161501 -0.049804699 0.80761701 0 0 0 -1.0737418e+008
0.144627 -0.049804699 0.80761701 0 0 0 -1.0737418e+008
0.079177499 -0.0556641 0.81347698 0 0 0 -1.0737418e+008
0.146749 -0.0556641 0.81347698 0 0 0 -1.0737418e+008
0.060924299 -0.026367201 0.79589802 0 0 0 -1.0737418e+008
0.0615234 -0.026367201 0.79610503 0 0 0 -1.0737418e+008
0.067382798 -0.026367201 0.79781699 0 0 0 -1.0737418e+008
0.073242202 -0.026367201 0.798051 0 0 0 -1.0737418e+008
0.0791016 -0.026367201 0.797598 0 0 0 -1.0737418e+008
0.0849609 -0.026367201 0.79762697 0 0 0 -1.0737418e+008
0.090820298 -0.026367201 0.797297 0 0 0 -1.0737418e+008
0.096679702 -0.026367201 0.79742497 0 0 0 -1.0737418e+008
0.102539 -0.026367201 0.79675299 0 0 0 -1.0737418e+008
0.108398 -0.026367201 0.79913902 0 0 0 -1.0737418e+008
0.114258 -0.026367201 0.79955202 0 0 0 -1.0737418e+008
0.131836 -0.026367201 0.80085999 0 0 0 -1.0737418e+008
0.137695 -0.026367201 0.80040002 0 0 0 -1.0737418e+008
0.15527301 -0.026367201 0.798509 0 0 0 -1.0737418e+008
0.16533101 -0.026367201 0.79589802 0 0 0 -1.0737418e+008
0.16113301 -0.026367201 0.79755503 0 0 0 -1.0737418e+008
0.16699199 -0.0237478 0.79589802 0 0 0 -1.0737418e+008
0.17285199 -0.0217296 0.79589802 0 0 0 -1.0737418e+008
-0.067791298 -0.049804699 0.81347698 0 0 0 -1.0737418e+008
-0.067382798 -0.046276301 0.81347698 0 0 0 -1.0737418e+008
-0.0146484 -0.049804699 0.81888902 0 0 0 -1.0737418e+008
-0.0086357603 -0.049804699 0.81347698 0 0 0 -1.0737418e+008
-0.0087890597 -0.048906699 0.81347698 0 0 0 -1.0737418e+008
-0.0087890597 -0.049804699 0.81366599 0 0 0 -1.0737418e+008
-0.0615234 -0.0380859 0.81296003 0 0 0 -1.0737418e+008
-0.0556641 -0.0380859 0.81278998 0 0 0 -1.0737418e+008
-0.049804699 -0.0380859 0.81255299 0 0 0 -1.0737418e+008
-0.0394076 -0.0380859 0.80761701 0 0 0 -1.0737418e+008
-0.043945301 -0.0380859 0.810579 0 0 0 -1.0737418e+008
-0.0380859 -0.036766201 0.80761701 0 0 0 -1.0737418e+008
-0.0080164699 -0.0380859 0.80761701 0 0 0 -1.0737418e+008
-0.0087890597 -0.036431301 0.80761701 0 0 0 -1.0737418e+008
-0.0087890597 -0.0380859 0.80966502 0 0 0 -1.0737418e+008
0.086766601 -0.0380859 0.80175799 0 0 0 -1.0737418e+008
0.0849609 -0.0380859 0.80402398 0 0 0 -1.0737418e+008
0.093350999 -0.0380859 0.80175799 0 0 0 -1.0737418e+008
0.090820298 -0.034023602 0.80175799 0 0 0 -1.0737418e+008
0.096679702 -0.0380859 0.803509 0 0 0 -1.0737418e+008
0.102539 -0.0380859 0.803186 0 0 0 -1.0737418e+008
0.108398 -0.0380859 0.80272102 0 0 0 -1.0737418e+008
0.114258 -0.0380859 0.80298799 0 0 0 -1.0737418e+008
0.120117 -0.0380859 0.80348402 0 0 0 -1.0737418e+008
0.12597699 -0.0380859 0.80351502 0 0 0 -1.0737418e+008
0.132131 -0.0380859 0.80175799 0 0 0 -1.0737418e+008
0.131836 -0.0380859 0.801911 0 0 0 -1.0737418e+008
0.148306 -0.0380859 0.80175799 0 0 0 -1.0737418e+008
0.149414 -0.036221601 0.80175799 0 0 0 -1.0737418e+008
0.15527301 -0.034187 0.80175799 0 0 0 -1.0737418e+008
-0.069189698 -0.0556641 0.81347698 0 0 0 -1.0737418e+008
-0.0090844603 -0.0556641 0.81347698 0 0 0 -1.0737418e+008
-0.0146484 -0.0556641 0.81812203 0 0 0 -1.0737418e+008
-0.0087890597 -0.052231099 0.81347698 0 0 0 -1.0737418e+008
0.0849609 -0.0322266 0.80584502 0 0 0 -1.0737418e+008
0.090820298 -0.0322266 0.80297798 0 0 0 -1.0737418e+008
0.096679702 -0.0322266 0.80351901 0 0 0 -1.0737418e+008
0.102539 -0.0322266 0.80301702 0 0 0 -1.0737418e+008
0.108398 -0.0322266 0.80302501 0 0 0 -1.0737418e+008
0.114258 -0.0322266 0.80401099 0 0 0 -1.0737418e+008
0.120117 -0.0283111 0.80175799 0 0 0 -1.0737418e+008
0.120117 -0.0322266 0.80272698 0 0 0 -1.0737418e+008
0.12597699 -0.0266353 0.80175799 0 0 0 -1.0737418e+008
0.12597699 -0.0322266 0.80290502 0 0 0 -1.0737418e+008
0.136209 -0.0322266 0.80175799 0 0 0 -1.0737418e+008
0.131836 -0.0322266 0.80320001 0 0 0 -1.0737418e+008
0.137695 -0.030285601 0.80175799 0 0 0 -1.0737418e+008
0.155414 -0.0322266 0.80175799 0 0 0 -1.0737418e+008
0.15527301 -0.0320067 0.80175799 0 0 0 -1.0737418e+008
0.15527301 -0.0322266 0.80185002 0 0 0 -1.0737418e+008
0.083095402 -0.043945301 0.80761701 0 0 0 -1.0737418e+008
0.14709499 -0.043945301 0.80761701 0 0 0 -1.0737418e+008
0.143555 -0.043945301 0.813371 0 0 0 -1.0737418e+008
