ply
format ascii 1.0
comment PCL generated
element vertex 571
property float x
property float y
property float z
property float nx
property float ny
property float nz
property float curvature
element camera 0
property float view_px
property float view_py
property float view_pz
property float x_axisx
property float x_axisy
property float x_axisz
property float y_axisx
property float y_axisy
property float y_axisz
property float z_axisx
property float z_axisy
property float z_axisz
property float focal
property float scalex
property float scaley
property float centerx
property float centery
property int viewportx
property int viewporty
property float k1
property float k2
end_header
0.19370186 -0.17285156 0.72558594 0.82831937 0.34041834 -0.4449746 9.775659e-037
0.19042969 -0.16741765 0.72558594 0.82163602 0.41031423 -0.39567217 9.775659e-037
0.10603333 -0.19628906 0.66113281 0.65892339 0.4400112 -0.61009026 9.775659e-037
0.10839844 -0.19628906 0.66348654 0.66578805 0.36635917 -0.65000558 9.775659e-037
0.093558311 -0.17285156 0.66699219 0.75115228 0.50161487 -0.42913011 9.775659e-037
0.19628906 -0.17593431 0.72558594 0.027114723 0.91984445 -0.39134526 9.775659e-037
0.20282102 -0.17871094 0.72558594 0.79563546 0.60576642 -0.0033662624 9.775659e-037
0.20214844 -0.17763817 0.72558594 0.86035663 0.50961322 0.0089908615 9.775659e-037
0.091542482 -0.16699219 0.66699219 0.95021141 0.15336762 0.2712501 9.775659e-037
0.20734417 -0.19042969 0.71972656 0.93559831 0.26461175 -0.2337445 9.775659e-037
0.20800781 -0.19042969 0.72030401 0.94674891 0.21329691 -0.2411865 9.775659e-037
0.21065605 -0.19628906 0.71972656 0.6132068 0.74262404 -0.26923391 9.775659e-037
0.20800781 -0.19136631 0.71972656 0.9411872 0.23817609 -0.23966405 9.775659e-037
0.21386719 -0.19628906 0.72310543 0.83049673 0.48380595 -0.27605617 9.775659e-037
0.20565128 -0.18457031 0.72558594 0.63258952 0.69285947 -0.34608701 9.775659e-037
0.20800781 -0.18457031 0.72861975 0.64736652 0.73733664 -0.19300589 9.775659e-037
0.19482493 -0.16699219 0.73730469 0.64096349 0.38953301 -0.66138482 9.775659e-037
0.19628906 -0.16699219 0.74170721 0.47732002 0.031984672 -0.8781473 9.775659e-037
0.10759878 -0.19042969 0.66699219 0.51292211 0.50940317 -0.6909554 9.775659e-037
0.10839844 -0.19042969 0.66827416 0.44892651 0.49069166 -0.74678433 9.775659e-037
0.11425781 -0.19042969 0.67269951 0.57773203 0.41478378 -0.70297956 9.775659e-037
0.095119357 -0.17871094 0.66699219 0.43432239 0.60167414 -0.67033738 9.775659e-037
0.096679688 -0.17871094 0.66870606 0.36971572 0.72351861 -0.58295041 9.775659e-037
0.10253906 -0.17871094 0.67036438 0.53291875 0.75888598 -0.37428549 9.775659e-037
0.096679688 -0.17997694 0.66699219 0.26696521 0.69260007 -0.67010057 9.775659e-037
0.10497403 -0.18457031 0.66699219 0.73266894 0.27058145 -0.62448543 9.775659e-037
0.10253906 -0.18115771 0.66699219 0.47868028 0.70709479 -0.52046335 9.775659e-037
0.10839844 -0.18457031 0.67272866 0.51103282 0.702573 -0.49521366 9.775659e-037
0.19474244 -0.17285156 0.73144531 0.66078687 0.5561201 -0.50407463 9.775659e-037
0.19628906 -0.17285156 0.73701459 0.28871605 0.81435865 -0.50345099 9.775659e-037
0.20214844 -0.17285156 0.73627162 0.98192763 0.098218545 -0.16177472 9.775659e-037
0.11130917 -0.19628906 0.66699219 0.58351505 0.29860926 -0.75521028 9.775659e-037
0.10839844 -0.19173837 0.66699219 0.48092493 0.51858038 -0.70695519 9.775659e-037
0.11425781 -0.19628906 0.67006737 0.56087893 0.41045898 -0.71898413 9.775659e-037
0.096085191 -0.17285156 0.67285156 0.55617714 0.6936453 -0.45773694 9.775659e-037
0.096679688 -0.17285156 0.67438686 0.57344455 0.66559374 -0.47764662 9.775659e-037
0.19628906 -0.17414606 0.73144531 0.15172344 0.8550055 -0.495929 9.775659e-037
0.20421851 -0.17871094 0.73144531 0.61090922 0.78374881 -0.11192658 9.775659e-037
0.20214844 -0.17511475 0.73144531 0.96095026 0.24684648 -0.12506555 9.775659e-037
0.20954716 -0.19042969 0.72558594 0.92403775 0.13008273 -0.35948956 9.775659e-037
0.20800781 -0.1873095 0.72558594 0.75508189 0.47655731 -0.45027158 9.775659e-037
0.093608737 -0.16699219 0.67285156 0.42548642 0.78019637 -0.45853573 9.775659e-037
0.090820313 -0.16494763 0.67285156 0.38000014 0.83301407 -0.40210387 9.775659e-037
0.21453726 -0.19628906 0.72558594 0.84065324 0.49126133 -0.22795725 9.775659e-037
0.21386719 -0.19538581 0.72558594 0.79969788 0.56026787 -0.21583138 9.775659e-037
0.20983565 -0.18457031 0.73144531 0.72871554 0.68108869 0.071356714 9.775659e-037
0.20800781 -0.18293107 0.73144531 0.66387719 0.74748909 -0.022961749 9.775659e-037
0.19722605 -0.16699219 0.74316406 0.71425694 -0.056748848 -0.69757909 9.775659e-037
0.19628906 -0.16575754 0.74316406 0.45544145 0.097411789 -0.8849203 9.775659e-037
0.20214844 -0.16699219 0.74863946 0.80544537 -0.55935913 -0.19589563 9.775659e-037
0.11442685 -0.19042969 0.67285156 0.58180904 0.41614333 -0.69880104 9.775659e-037
0.11425781 -0.19018781 0.67285156 0.57450747 0.43587258 -0.69278884 9.775659e-037
0.12011719 -0.19042969 0.67730987 0.5802809 0.43701142 -0.68723726 9.775659e-037
0.096679688 -0.17372918 0.67285156 0.53423619 0.73138988 -0.42386383 9.775659e-037
0.10526693 -0.17871094 0.67285156 0.59750283 0.76239055 -0.24849726 9.775659e-037
0.10253906 -0.17692423 0.67285156 0.59130359 0.74581814 -0.30678225 9.775659e-037
0.10863459 -0.18457031 0.67285156 0.50043666 0.71090496 -0.49414289 9.775659e-037
0.10839844 -0.18429327 0.67285156 0.5142653 0.71444368 -0.47444844 9.775659e-037
0.11425781 -0.18457031 0.67612946 0.4202697 0.72113281 -0.55076391 9.775659e-037
0.19628906 -0.17250204 0.73730469 0.34775847 0.79119372 -0.50306714 9.775659e-037
0.20229781 -0.17285156 0.73730469 0.98170477 0.095299765 -0.16484459 9.775659e-037
0.20214844 -0.1722939 0.73730469 0.98399317 0.068440668 -0.16454014 9.775659e-037
0.11864018 -0.19628906 0.67285156 0.46956143 0.51092005 -0.72005051 9.775659e-037
0.12011719 -0.19628906 0.67394048 0.43004948 0.58497965 -0.68764549 9.775659e-037
0.12597656 -0.19628906 0.67601502 0.39971521 0.53063595 -0.7474311 9.775659e-037
0.13769531 -0.19628906 0.67814231 0.057471793 0.44238129 -0.89498359 9.775659e-037
0.099713802 -0.17285156 0.67871094 0.49598777 0.63502669 -0.59223062 9.775659e-037
0.096679688 -0.16985142 0.67871094 0.47510228 0.76173294 -0.4405005 9.775659e-037
0.10253906 -0.17285156 0.68169582 0.44760215 0.59795213 -0.66491014 9.775659e-037
0.20434415 -0.17871094 0.73730469 0.61717415 0.77036279 -0.16011633 9.775659e-037
0.21122265 -0.19042969 0.73144531 0.92788798 0.29651123 -0.22606422 9.775659e-037
0.21091139 -0.18457031 0.73730469 0.63137031 0.73878694 -0.23572336 9.775659e-037
0.20800781 -0.18110633 0.73730469 0.67073745 0.72318637 -0.16465947 9.775659e-037
0.2160809 -0.19628906 0.73144531 0.75868368 0.53321725 -0.37427056 9.775659e-037
0.21386719 -0.19346929 0.73144531 0.77575785 0.50304848 -0.38097504 9.775659e-037
0.093559146 -0.16699219 0.67871094 0.41032869 0.76717097 -0.49303052 9.775659e-037
0.090820313 -0.16559303 0.67871094 0.37845033 0.75861496 -0.53035712 9.775659e-037
0.12171185 -0.19042969 0.67871094 0.45393407 0.47684148 -0.75270581 9.775659e-037
0.12011719 -0.18833399 0.67871094 0.57786453 0.43939501 -0.68775326 9.775659e-037
0.12597656 -0.19042969 0.68224353 -0.054867491 0.60590047 -0.7936461 9.775659e-037
0.13183594 -0.19042969 0.68237722 -0.19006732 0.50980473 -0.83903128 9.775659e-037
0.13769531 -0.19042969 0.6812948 -0.020227017 0.40568098 -0.91379094 9.775659e-037
0.14355469 -0.19042969 0.68107575 -0.011575649 0.39775378 -0.91741925 9.775659e-037
0.14941406 -0.19042969 0.68169415 0.39436001 0.37962621 -0.83687764 9.775659e-037
0.15527344 -0.19042969 0.68381554 0.22174257 0.36902621 -0.90257955 9.775659e-037
0.16113281 -0.19042969 0.68442369 0.14560325 0.49594149 -0.85606176 9.775659e-037
0.20226061 -0.16699219 0.74902344 0.79912108 -0.5681206 -0.19658187 9.775659e-037
0.10717237 -0.17871094 0.67871094 0.55991662 0.6634751 -0.49628031 9.775659e-037
0.10253906 -0.17462754 0.67871094 0.49928483 0.60383534 -0.62136745 9.775659e-037
0.10839844 -0.17871094 0.6814701 0.47189495 0.71328294 -0.51821095 9.775659e-037
0.20320165 -0.17285156 0.74316406 0.97016525 0.056114774 -0.23586132 9.775659e-037
0.20214844 -0.16977262 0.74316406 0.94046402 -0.24972479 -0.23057497 9.775659e-037
0.10839844 -0.17984951 0.67871094 0.40573633 0.7758286 -0.48318523 9.775659e-037
0.11713171 -0.18457031 0.67871094 0.33731371 0.7089628 -0.61934745 9.775659e-037
0.11425781 -0.18270791 0.67871094 0.35645935 0.75459027 -0.55093575 9.775659e-037
0.12011719 -0.18457031 0.68125349 0.24900983 0.4721902 -0.8455947 9.775659e-037
0.13769531 -0.18457031 0.68377221 -0.12862255 0.63880861 -0.75853783 9.775659e-037
0.14355469 -0.18457031 0.68362927 -0.053997084 0.53553796 -0.84278309 9.775659e-037
0.14941406 -0.18457031 0.68351167 0.048646398 0.1784271 -0.98274982 9.775659e-037
0.20677578 -0.17871094 0.74316406 0.47905058 0.79414314 -0.37396145 9.775659e-037
0.20800781 -0.17871094 0.74450696 0.57236099 0.7617991 -0.30342194 9.775659e-037
0.12889957 -0.19628906 0.67871094 0.0058858246 0.19107828 -0.98155719 9.775659e-037
0.12597656 -0.19387591 0.67871094 0.10388127 0.44494033 -0.88951492 9.775659e-037
0.13593924 -0.19628906 0.67871094 -0.075926818 0.50414467 -0.86027509 9.775659e-037
0.13183594 -0.19628906 0.68131334 -0.32616228 0.31449226 -0.89146662 9.775659e-037
0.14172614 -0.19628906 0.67871094 0.12558392 0.34892005 -0.92869997 9.775659e-037
0.13769531 -0.1945498 0.67871094 0.00094389991 0.44529682 -0.89538258 9.775659e-037
0.14355469 -0.19628906 0.67909551 0.16820145 0.31063712 -0.93552816 9.775659e-037
0.14941406 -0.19628906 0.67989582 0.20618229 0.33241737 -0.92031932 9.775659e-037
0.15527344 -0.19628906 0.68070257 0.16158587 0.42018816 -0.89293438 9.775659e-037
0.16113281 -0.19628906 0.68201888 0.19924419 0.32438999 -0.92470157 9.775659e-037
0.16699219 -0.19628906 0.68373311 0.32320717 0.33861816 -0.88367116 9.775659e-037
0.096679688 -0.16714001 0.68457031 0.3577573 0.63708985 -0.68273437 9.775659e-037
0.10582101 -0.17285156 0.68457031 0.54430002 0.34544632 -0.76446348 9.775659e-037
0.10253906 -0.17015922 0.68457031 0.20356771 0.59418106 -0.77814478 9.775659e-037
0.10839844 -0.17285156 0.68682295 0.69374764 0.28915444 -0.65962416 9.775659e-037
0.15527344 -0.17285156 0.68807232 0.064755552 0.51741582 -0.85328054 9.775659e-037
0.16113281 -0.17285156 0.68829024 0.16390945 0.45438156 -0.8755976 9.775659e-037
0.16699219 -0.17285156 0.69007391 0.47802299 0.1622356 -0.8632344 9.775659e-037
0.21353769 -0.19042969 0.73730469 0.78934216 0.48844144 -0.37197301 9.775659e-037
0.21386719 -0.19042969 0.73781651 0.7992028 0.47741902 -0.3651658 9.775659e-037
0.21773803 -0.19628906 0.73730469 0.69226009 0.62125283 -0.36717978 9.775659e-037
0.21386719 -0.19080162 0.73730469 0.80439371 0.46517009 -0.3695505 9.775659e-037
0.21237707 -0.18457031 0.74316406 0.50841284 0.78157729 -0.36145976 9.775659e-037
0.20800781 -0.17975724 0.74316406 0.62994075 0.682455 -0.37071523 9.775659e-037
0.21386719 -0.18457031 0.74641478 0.41946554 0.83280331 -0.36123013 9.775659e-037
0.096511006 -0.16699219 0.68457031 0.37115192 0.62413716 -0.68753117 9.775659e-037
0.090820313 -0.1625278 0.68457031 0.3050552 0.75630498 -0.57874352 9.775659e-037
0.096679688 -0.16699219 0.68488717 0.36320424 0.62425005 -0.69166064 9.775659e-037
0.10253906 -0.16699219 0.68826205 0.18745354 0.71045572 -0.67831689 9.775659e-037
0.10839844 -0.16699219 0.68955797 0.60193926 0.65884882 -0.45120648 9.775659e-037
0.20393932 -0.16699219 0.75488281 0.6085549 -0.43111551 -0.66618341 9.775659e-037
0.20336556 -0.17285156 0.74902344 0.95874077 0.09824796 -0.26676482 9.775659e-037
0.12597656 -0.18695152 0.68457031 0.028543038 0.41872504 -0.90766448 9.775659e-037
0.13183594 -0.18656802 0.68457031 -0.27402326 0.58411247 -0.7640183 9.775659e-037
0.15527344 -0.18917429 0.68457031 0.27744353 0.22625446 -0.93372053 9.775659e-037
0.16205466 -0.19042969 0.68457031 0.17180051 0.50260574 -0.84727329 9.775659e-037
0.16113281 -0.19019401 0.68457031 0.15029806 0.47666487 -0.86614144 9.775659e-037
0.16699219 -0.19042969 0.68539011 0.29720947 0.45006931 -0.84208322 9.775659e-037
0.17285156 -0.19042969 0.68804365 0.43278748 0.31782654 -0.84361207 9.775659e-037
0.11415851 -0.17871094 0.68457031 0.0020993585 0.76068336 -0.64911979 9.775659e-037
0.10839844 -0.17592907 0.68457031 0.64524835 0.40298125 -0.64904594 9.775659e-037
0.11425781 -0.17871094 0.68463159 -0.0086119426 0.75908476 -0.65093488 9.775659e-037
0.12011719 -0.17871094 0.6865741 0.040458295 0.79816669 -0.60107654 9.775659e-037
0.12597656 -0.17871094 0.68605995 0.20601155 0.66320395 -0.71952748 9.775659e-037
0.13183594 -0.17871094 0.68958157 0.020191383 0.54051292 -0.84109336 9.775659e-037
0.13769531 -0.17871094 0.68974024 -0.16838102 0.55543 -0.81433725 9.775659e-037
0.14355469 -0.17871094 0.68761051 -0.12529953 0.55693465 -0.82105041 9.775659e-037
0.14941406 -0.17871094 0.68708432 -0.34381667 0.43316081 -0.83316374 9.775659e-037
0.15527344 -0.17871094 0.68514323 0.047217436 0.39844924 -0.91597414 9.775659e-037
0.16113281 -0.17871094 0.68620682 0.48143113 0.14460298 -0.86447322 9.775659e-037
0.21053219 -0.17871094 0.74902344 0.48122659 0.37879574 -0.79052806 9.775659e-037
0.20800781 -0.17642808 0.74902344 0.1645671 0.75411385 -0.63579071 9.775659e-037
0.20800781 -0.17871094 0.75472844 0.64815342 0.36666417 -0.66742384 9.775659e-037
0.11425781 -0.178743 0.68457031 -0.006082017 0.7579568 -0.6522764 9.775659e-037
0.12398553 -0.18457031 0.68457031 0.28138572 0.0084181838 -0.95955789 9.775659e-037
0.12011719 -0.18162858 0.68457031 -0.0081789913 0.47646156 -0.87915725 9.775659e-037
0.12597656 -0.18457031 0.68637264 0.30061138 0.20268613 -0.93196082 9.775659e-037
0.13562047 -0.18457031 0.68457031 -0.13569121 0.69895178 -0.7021783 9.775659e-037
0.13183594 -0.18457031 0.68625367 -0.14791612 0.61490113 -0.77460784 9.775659e-037
0.13769531 -0.18360806 0.68457031 -0.17695703 0.63595009 -0.75116831 9.775659e-037
0.14355469 -0.18328428 0.68457031 -0.063579373 0.54859912 -0.8336646 9.775659e-037
0.15083516 -0.18457031 0.68457031 0.039025091 0.11463965 -0.99264032 9.775659e-037
0.14941406 -0.18283319 0.68457031 -0.1770786 0.32109946 -0.93034309 9.775659e-037
0.15527344 -0.18457031 0.6862753 0.25237003 -0.054725535 -0.9660821 9.775659e-037
0.16113281 -0.18457031 0.68778396 0.45964879 -0.037985027 -0.88728809 9.775659e-037
0.16699219 -0.18457031 0.68910336 0.28180543 0.21517681 -0.93503189 9.775659e-037
0.16974568 -0.19628906 0.68457031 0.38846573 0.37192208 -0.84307075 9.775659e-037
0.16699219 -0.19325173 0.68457031 0.3644366 0.40125641 -0.84034473 9.775659e-037
0.17285156 -0.19628906 0.68544501 0.46544689 0.37909454 -0.79977906 9.775659e-037
0.17871094 -0.19628906 0.68868041 0.53551596 0.36187682 -0.76306468 9.775659e-037
0.21661127 -0.19042969 0.74316406 0.92089587 0.22969113 -0.31494877 9.775659e-037
0.21386719 -0.18666911 0.74316406 0.64544058 0.61779112 -0.44915548 9.775659e-037
0.1120075 -0.17285156 0.69042969 0.40939614 0.40298563 -0.8185336 9.775659e-037
0.11425781 -0.17285156 0.69258952 0.27735889 0.62621742 -0.72864521 9.775659e-037
0.12011719 -0.17285156 0.69287997 0.13560241 0.74017102 -0.65860367 9.775659e-037
0.12597656 -0.17285156 0.69376135 -0.0083239032 0.72038442 -0.69352514 9.775659e-037
0.13183594 -0.17285156 0.69326907 -0.17913274 0.66292757 -0.72693777 9.775659e-037
0.13769531 -0.17285156 0.6933279 -0.19244905 0.56296384 -0.80376315 9.775659e-037
0.14355469 -0.17285156 0.69213903 -0.31021413 0.51746035 -0.79749721 9.775659e-037
0.15029383 -0.17285156 0.69042969 -0.25738955 0.50417733 -0.82435185 9.775659e-037
0.14941406 -0.17285156 0.69079548 -0.27397627 0.49470767 -0.82474315 9.775659e-037
0.15527344 -0.16859746 0.69042969 -0.042562511 0.45947117 -0.88717222 9.775659e-037
0.16113281 -0.16956091 0.69042969 0.15684636 0.40953147 -0.89871198 9.775659e-037
0.16747248 -0.17285156 0.69042969 0.50239652 0.12959774 -0.85486972 9.775659e-037
0.16699219 -0.17183983 0.69042969 0.41324276 0.21195957 -0.88560921 9.775659e-037
0.17285156 -0.17285156 0.69465297 0.7139743 0.12549323 -0.68883395 9.775659e-037
0.21566057 -0.18457031 0.74902344 0.48666197 0.70632195 -0.51407129 9.775659e-037
0.21386719 -0.18327641 0.74902344 0.15139441 0.89698869 -0.41532028 9.775659e-037
0.2190913 -0.19628906 0.74316406 0.47707519 0.77207696 -0.41987664 9.775659e-037
0.21972656 -0.19628906 0.7465204 0.1600679 0.83686781 -0.52347916 9.775659e-037
0.10253906 -0.16475558 0.69042969 0.29504299 0.67006665 -0.68114632 9.775659e-037
0.10939229 -0.16699219 0.69042969 0.5276438 0.70561129 -0.47297421 9.775659e-037
0.10839844 -0.16600788 0.69042969 0.64168805 0.61462033 -0.45877907 9.775659e-037
0.11425781 -0.16699219 0.69509912 0.30594775 0.78616345 -0.5369758 9.775659e-037
0.14355469 -0.16699219 0.69614649 -0.2039578 0.53907883 -0.81718743 9.775659e-037
0.14941406 -0.16699219 0.69392413 -0.34648052 0.53816092 -0.76833189 9.775659e-037
0.15527344 -0.16699219 0.69149429 -0.10428804 0.45444518 -0.88464886 9.775659e-037
0.16113281 -0.16699219 0.69182688 0.18506286 0.4018155 -0.89682549 9.775659e-037
0.16699219 -0.16699219 0.69277608 0.22599618 0.37687317 -0.89827186 9.775659e-037
0.17285156 -0.16699219 0.69451725 0.75193632 0.19472197 -0.62982148 9.775659e-037
0.20441771 -0.17285156 0.75488281 0.58557069 0.14084305 -0.7982921 9.775659e-037
0.20800781 -0.17285156 0.75950462 0.74977428 0.32835573 -0.57447445 9.775659e-037
0.17682576 -0.19042969 0.69042969 0.54227018 0.25437564 -0.80077219 9.775659e-037
0.17285156 -0.1852299 0.69042969 0.42300346 0.32714021 -0.84501314 9.775659e-037
0.17871094 -0.19042969 0.69155395 0.56782305 0.28099605 -0.77370423 9.775659e-037
0.18457031 -0.19042969 0.69544923 0.6184659 0.38585418 -0.68455571 9.775659e-037
0.11425781 -0.17521608 0.69042969 0.079261288 0.61784291 -0.78229642 9.775659e-037
0.12011719 -0.17473304 0.69042969 0.08840096 0.74323535 -0.66316402 9.775659e-037
0.12597656 -0.17494261 0.69042969 -0.04330074 0.78900397 -0.61286038 9.775659e-037
0.13183594 -0.17710185 0.69042969 0.002206153 0.64051503 -0.76794243 9.775659e-037
0.13769531 -0.17767394 0.69042969 -0.15479307 0.56460482 -0.81071603 9.775659e-037
0.14355469 -0.17510986 0.69042969 -0.26028609 0.48933592 -0.83234698 9.775659e-037
0.14941406 -0.17359269 0.69042969 -0.28021601 0.48569182 -0.82799911 9.775659e-037
0.16663325 -0.17871094 0.69042969 0.48716614 0.12738475 -0.86396885 9.775659e-037
0.16699219 -0.17639554 0.69042969 0.58145911 0.1407225 -0.80131286 9.775659e-037
0.16699219 -0.17871094 0.69068474 0.49625143 0.14657564 -0.85571617 9.775659e-037
0.17285156 -0.17871094 0.69242203 0.56761712 0.35995191 -0.74043602 9.775659e-037
0.17871094 -0.17871094 0.6961391 0.60051286 0.54907936 -0.58128828 9.775659e-037
0.17170751 -0.18457031 0.69042969 0.42532253 0.29985741 -0.8539241 9.775659e-037
0.16699219 -0.17989349 0.69042969 0.4403235 0.15795873 -0.88383496 9.775659e-037
0.17285156 -0.18457031 0.690745 0.43806136 0.32707667 -0.83733082 9.775659e-037
0.17871094 -0.18457031 0.69325995 0.58269519 0.34697124 -0.73489952 9.775659e-037
0.2078979 -0.17871094 0.75488281 0.64330584 0.37071678 -0.66987062 9.775659e-037
0.20800781 -0.17871094 0.7549783 0.66227371 0.3588855 -0.65771937 9.775659e-037
0.21786082 -0.19042969 0.74902344 0.76655316 0.2462272 -0.59310055 9.775659e-037
0.18114138 -0.19628906 0.69042969 0.57227367 0.33343658 -0.74921483 9.775659e-037
0.17871094 -0.19273496 0.69042969 0.53657329 0.31224599 -0.78395885 9.775659e-037
0.18457031 -0.19628906 0.69294775 0.59263539 0.25922462 -0.76261783 9.775659e-037
0.12011719 -0.16952443 0.69628906 0.047185067 0.79360819 -0.60659677 9.775659e-037
0.12597656 -0.17076015 0.69628906 -0.074789405 0.68324804 -0.72634602 9.775659e-037
0.13183594 -0.17066479 0.69628906 -0.1716861 0.61755306 -0.76756239 9.775659e-037
0.13769531 -0.16904283 0.69628906 -0.29934302 0.5602712 -0.77232754 9.775659e-037
0.17490888 -0.17285156 0.69628906 0.69630438 0.065057151 -0.71479207 9.775659e-037
0.17871094 -0.17285156 0.70067787 0.82537842 0.12537143 -0.55048382 9.775659e-037
0.20800781 -0.17878938 0.75488281 0.65742552 0.36384851 -0.65985298 9.775659e-037
0.21771657 -0.18457031 0.75488281 0.4046908 0.52913809 -0.74581385 9.775659e-037
0.21386719 -0.1820153 0.75488281 -0.3631857 0.71346438 -0.59922004 9.775659e-037
0.22188342 -0.19628906 0.74902344 0.34776345 0.74197644 -0.57317668 9.775659e-037
0.21972656 -0.19532239 0.74902344 0.16418824 0.80547673 -0.5694291 9.775659e-037
0.22558594 -0.19628906 0.75331813 0.28442219 0.75625324 -0.58922404 9.775659e-037
0.21033299 -0.17285156 0.76074219 0.42338395 0.27360848 -0.86364603 9.775659e-037
0.10839844 -0.16164088 0.69628906 0.67175162 0.31749955 -0.66928619 9.775659e-037
0.11584616 -0.16699219 0.69628906 0.24769323 0.77609342 -0.5799371 9.775659e-037
0.11425781 -0.16621673 0.69628906 0.29956579 0.74968237 -0.5901159 9.775659e-037
0.12011719 -0.16699219 0.70000362 0.050899938 0.74111909 -0.66944128 9.775659e-037
0.12597656 -0.16699219 0.70036489 -0.26719245 0.66317117 -0.69915104 9.775659e-037
0.13183594 -0.16699219 0.69932455 -0.12466238 0.59797692 -0.79175931 9.775659e-037
0.14307308 -0.16699219 0.69628906 -0.21167377 0.52380043 -0.82512259 9.775659e-037
0.13769531 -0.16699219 0.69798648 -0.37883741 0.50072962 -0.77830076 9.775659e-037
0.14355469 -0.16679847 0.69628906 -0.19608013 0.53853583 -0.81947047 9.775659e-037
0.14941406 -0.16390276 0.69628906 -0.40083805 0.54522514 -0.73624611 9.775659e-037
0.17411375 -0.16699219 0.69628906 0.73826218 0.27185309 -0.61730438 9.775659e-037
0.17285156 -0.16210091 0.69628906 0.77341491 0.58387536 -0.24681747 9.775659e-037
0.17871094 -0.16699219 0.70036083 0.81956393 0.44976559 -0.35500112 9.775659e-037
0.18571901 -0.19042969 0.69628906 0.65482455 0.39430049 -0.64477289 9.775659e-037
0.18457031 -0.18844664 0.69628906 0.64583212 0.38688233 -0.65819669 9.775659e-037
0.17889416 -0.17871094 0.69628906 0.60563606 0.55120009 -0.57391942 9.775659e-037
0.17871094 -0.17849422 0.69628906 0.60983849 0.54063219 -0.57949448 9.775659e-037
0.18457031 -0.17871094 0.70102978 0.67488629 0.55428487 -0.48713109 9.775659e-037
0.18242717 -0.18457031 0.69628906 0.68230879 0.34945786 -0.64213234 9.775659e-037
0.18457031 -0.18457031 0.69803703 0.68871039 0.38711405 -0.61304212 9.775659e-037
0.21220624 -0.17871094 0.76074219 0.49699426 -0.3729648 -0.78351384 9.775659e-037
0.21972656 -0.17871094 0.76582915 0.10077266 0.51578915 -0.85076809 9.775659e-037
0.22558594 -0.17871094 0.76511955 0.59158152 0.59158152 -0.54777968 9.775659e-037
0.18831074 -0.19628906 0.69628906 0.68825525 0.27421385 -0.67164832 9.775659e-037
0.21911526 -0.19042969 0.75488281 0.49616274 0.434672 -0.75158697 9.775659e-037
0.21972656 -0.19042969 0.75815576 0.20142834 0.46173573 -0.86384422 9.775659e-037
0.22558594 -0.19042969 0.75980246 0.4179391 0.37127864 -0.82914352 9.775659e-037
0.17987847 -0.17285156 0.70214844 0.8199268 0.23602086 -0.52154988 9.775659e-037
0.18457031 -0.17285156 0.70678943 0.77191925 0.49146217 -0.4032439 9.775659e-037
0.21945751 -0.18457031 0.76074219 -0.029236851 0.49748629 -0.86697894 9.775659e-037
0.21386719 -0.18081224 0.76074219 -0.54851073 0.35727426 -0.7559703 9.775659e-037
0.21972656 -0.18457031 0.76173764 -0.10449377 0.50961298 -0.85403496 9.775659e-037
0.22558594 -0.18457031 0.76237833 0.40112334 0.31901786 -0.85867786 9.775659e-037
0.23144531 -0.18457031 0.7655493 0.58021271 0.58021271 -0.57158238 9.775659e-037
0.21972656 -0.19202626 0.75488281 0.21465497 0.60269034 -0.76856202 9.775659e-037
0.23039758 -0.19628906 0.75488281 -0.083083428 0.78069395 -0.61936593 9.775659e-037
0.22558594 -0.19492984 0.75488281 0.31873155 0.68258405 -0.65763915 9.775659e-037
0.23144531 -0.19628906 0.75516284 -0.17812121 0.77232742 -0.60974026 9.775659e-037
0.21385479 -0.17285156 0.76660156 -0.15799496 0.65168065 -0.74185568 9.775659e-037
0.21386719 -0.17285156 0.76663733 -0.16390486 0.6539709 -0.73855078 9.775659e-037
0.21972656 -0.17285156 0.76724863 0.57331496 0.57331496 -0.58533722 9.775659e-037
0.11425781 -0.16311955 0.70214844 0.38216522 0.38564149 -0.83977997 9.775659e-037
0.12011719 -0.16526055 0.70214844 0.065436229 0.68906081 -0.72174317 9.775659e-037
0.12597656 -0.16559482 0.70214844 -0.29987475 0.66247463 -0.68644184 9.775659e-037
0.13183594 -0.1633656 0.70214844 -0.15289178 0.67721337 -0.71972644 9.775659e-037
0.13769531 -0.16185737 0.70214844 -0.3788498 0.66849583 -0.6399892 9.775659e-037
0.18024147 -0.16699219 0.70214844 0.80099535 0.48362604 -0.35286298 9.775659e-037
0.17871094 -0.16399133 0.70214844 0.79487699 0.50515479 -0.33613864 9.775659e-037
0.18864071 -0.18457031 0.70214844 0.70667046 0.42756796 -0.56373972 9.775659e-037
0.18540013 -0.17871094 0.70214844 0.6729638 0.56511176 -0.47725073 9.775659e-037
0.18457031 -0.1776998 0.70214844 0.69530839 0.53266346 -0.48251006 9.775659e-037
0.18538499 -0.17285156 0.70800781 0.71872956 0.5565958 -0.416688 9.775659e-037
0.18457031 -0.17095649 0.70800781 0.81449777 0.47388536 -0.33470303 9.775659e-037
0.21972656 -0.18598449 0.76074219 -0.044758879 0.47658679 -0.87798727 9.775659e-037
0.22737026 -0.19042969 0.76074219 0.31728625 0.40385568 -0.85803837 9.775659e-037
0.22558594 -0.18883467 0.76074219 0.44951716 0.27616996 -0.8495084 9.775659e-037
0.23144531 -0.19042969 0.76263165 0.39833164 0.39477822 -0.82793844 9.775659e-037
0.21331465 -0.17871094 0.76660156 0.10964508 -0.15311806 -0.98210633 9.775659e-037
0.21859276 -0.17871094 0.76660156 0.056442868 0.4140808 -0.90848839 9.775659e-037
0.21386719 -0.17871094 0.76997495 -0.36915508 0.008654464 -0.92932749 9.775659e-037
0.21972656 -0.17551279 0.76660156 0.54525805 0.46146905 -0.6998142 9.775659e-037
0.21386719 -0.18015563 0.76660156 -0.49378893 0.15693831 -0.85530287 9.775659e-037
0.23144531 -0.19189334 0.76074219 0.074283876 0.55781597 -0.82663369 9.775659e-037
0.18274057 -0.16699219 0.70800781 0.8148759 0.50575161 -0.2831831 9.775659e-037
0.18457031 -0.16699219 0.71191621 0.79113603 0.50236642 -0.34890079 9.775659e-037
0.19013166 -0.17871094 0.70800781 0.73913705 0.56858152 -0.36109763 9.775659e-037
0.18519902 -0.16699219 0.71386719 0.75912809 0.54755545 -0.352005 9.775659e-037
0.18457031 -0.16600347 0.71386719 0.76438653 0.5580802 -0.32289267 9.775659e-037
0.18845761 -0.16699219 0.71972656 0.77705437 0.54592717 -0.31328887 9.775659e-037
0.18457031 -0.16262984 0.71972656 0.72747338 0.48284015 -0.48749134 9.775659e-037
0.18978512 -0.16699219 0.72558594 0.81060815 0.40440923 -0.42351818 9.775659e-037
-0.085255504 -0.14355469 0.50292969 1.#QNAN 1.#QNAN 1.#QNAN 9.775659e-037
-0.090820313 -0.14355469 0.5085265 1.#QNAN 1.#QNAN 1.#QNAN 9.775659e-037
-0.08792305 -0.13769531 0.50292969 1.#QNAN 1.#QNAN 1.#QNAN 9.775659e-037
-0.090820313 -0.1341809 0.50292969 1.#QNAN 1.#QNAN 1.#QNAN 9.775659e-037
-0.090820313 -0.13769531 0.50484383 1.#QNAN 1.#QNAN 1.#QNAN 9.775659e-037
-0.092541695 -0.13183594 0.50292969 1.#QNAN 1.#QNAN 1.#QNAN 9.775659e-037
-0.096679688 -0.13183594 0.50575882 1.#QNAN 1.#QNAN 1.#QNAN 9.775659e-037
-0.079417825 -0.14941406 0.50292969 1.#QNAN 1.#QNAN 1.#QNAN 9.775659e-037
-0.084960938 -0.14387655 0.50292969 1.#QNAN 1.#QNAN 1.#QNAN 9.775659e-037
-0.084960938 -0.14941406 0.50832385 1.#QNAN 1.#QNAN 1.#QNAN 9.775659e-037
-0.016210914 -0.14941406 0.50292969 1.#QNAN 1.#QNAN 1.#QNAN 9.775659e-037
-0.020507813 -0.14941406 0.50674504 1.#QNAN 1.#QNAN 1.#QNAN 9.775659e-037
-0.073242188 -0.1554296 0.50292969 1.#QNAN 1.#QNAN 1.#QNAN 9.775659e-037
-0.073242188 -0.16113281 0.50636083 1.#QNAN 1.#QNAN 1.#QNAN 9.775659e-037
-0.063209891 -0.16113281 0.50292969 1.#QNAN 1.#QNAN 1.#QNAN 9.775659e-037
-0.067382813 -0.15856063 0.50292969 1.#QNAN 1.#QNAN 1.#QNAN 9.775659e-037
-0.067382813 -0.16113281 0.50464815 1.#QNAN 1.#QNAN 1.#QNAN 9.775659e-037
-0.019000769 -0.16113281 0.50292969 1.#QNAN 1.#QNAN 1.#QNAN 9.775659e-037
-0.020507813 -0.16113281 0.50382328 1.#QNAN 1.#QNAN 1.#QNAN 9.775659e-037
-0.073509336 -0.15527344 0.50292969 1.#QNAN 1.#QNAN 1.#QNAN 9.775659e-037
-0.079101563 -0.15019548 0.50292969 1.#QNAN 1.#QNAN 1.#QNAN 9.775659e-037
-0.079101563 -0.15527344 0.50495589 1.#QNAN 1.#QNAN 1.#QNAN 9.775659e-037
-0.015767813 -0.15527344 0.50292969 1.#QNAN 1.#QNAN 1.#QNAN 9.775659e-037
-0.020507813 -0.15527344 0.50602329 1.#QNAN 1.#QNAN 1.#QNAN 9.775659e-037
-0.09115994 -0.14355469 0.50878906 -0.48665124 -0.41765875 -0.76728857 9.775659e-037
-0.096679688 -0.14355469 0.51258779 -0.45507684 -0.49471259 -0.74038136 9.775659e-037
-0.10253906 -0.13769531 0.51401299 -0.67473793 -0.26300287 -0.68960738 9.775659e-037
-0.095822692 -0.13769531 0.50878906 -0.49478853 -0.36583665 -0.78825623 9.775659e-037
-0.096679688 -0.1366961 0.50878906 -0.51074058 -0.36400622 -0.77887326 9.775659e-037
-0.096679688 -0.13769531 0.50937372 -0.50182825 -0.35380074 -0.78929925 9.775659e-037
-0.12011719 -0.13183594 0.51288354 0.23131284 -0.53511375 -0.81249464 9.775659e-037
-0.11425781 -0.12871385 0.50878906 0.22779314 -0.57471317 -0.78601211 9.775659e-037
-0.11425781 -0.13183594 0.51148993 0.19014977 -0.60512769 -0.77308697 9.775659e-037
-0.10839844 -0.12671793 0.50878906 -0.15397106 -0.4548555 -0.87715411 9.775659e-037
-0.10839844 -0.13183594 0.513026 -0.31457964 -0.48997602 -0.81299639 9.775659e-037
-0.10062122 -0.13183594 0.50878906 -0.62260187 -0.26114491 -0.737679 9.775659e-037
-0.10253906 -0.1276468 0.50878906 -0.58959395 -0.31003755 -0.74582559 9.775659e-037
-0.10253906 -0.13183594 0.51078647 -0.63754809 -0.30328327 -0.70820314 9.775659e-037
-0.085696697 -0.14941406 0.50878906 -0.41256142 -0.44173124 -0.79665977 9.775659e-037
-0.090820313 -0.14401746 0.50878906 -0.49551064 -0.41123912 -0.76508278 9.775659e-037
-0.090820313 -0.14941406 0.51176274 -0.50926363 -0.42110029 -0.75054985 9.775659e-037
-0.022088051 -0.14941406 0.50878906 0.62666386 -0.16045098 0.76259291 9.775659e-037
-0.075991273 -0.16113281 0.50878906 -0.31022441 -0.37270862 -0.87455654 9.775659e-037
-0.079101563 -0.1586436 0.50878906 -0.26626357 -0.45643383 -0.84898281 9.775659e-037
-0.079101563 -0.16113281 0.51055354 -0.29025573 -0.36875445 -0.88304687 9.775659e-037
-0.025550842 -0.16113281 0.50878906 0.70842451 0.041641958 0.70455706 9.775659e-037
-0.026367188 -0.16113281 0.50920624 0.74304378 -0.032582492 0.6684491 9.775659e-037
-0.083019495 -0.15527344 0.50878906 -0.52857417 -0.32225403 -0.78534174 9.775659e-037
-0.084960938 -0.15057898 0.50878906 -0.44803736 -0.39496613 -0.8020376 9.775659e-037
-0.084960938 -0.15527344 0.51063275 -0.52027249 -0.36503321 -0.77205396 9.775659e-037
-0.023284912 -0.15527344 0.50878906 0.70807654 -0.18174355 0.6823467 9.775659e-037
-0.026367188 -0.15527344 0.51267332 0.46159056 0.46159056 0.75754094 9.775659e-037
-0.12011719 -0.14355469 0.51935768 0.20318834 -0.53343672 -0.82107228 9.775659e-037
-0.098676443 -0.14355469 0.51464844 -0.51708198 -0.50100291 -0.69399017 9.775659e-037
-0.10253906 -0.13848889 0.51464844 -0.67472738 -0.2904014 -0.67853516 9.775659e-037
-0.10253906 -0.14355469 0.51800543 -0.61011082 -0.41722634 -0.67356282 9.775659e-037
-0.12011719 -0.13730943 0.51464844 0.2123035 -0.69834977 -0.68354577 9.775659e-037
-0.12011719 -0.13769531 0.51512384 0.1964578 -0.70730937 -0.67905658 9.775659e-037
-0.11425781 -0.13597023 0.51464844 0.10639695 -0.60119784 -0.79198545 9.775659e-037
-0.11425781 -0.13769531 0.51617831 0.026250266 -0.56001383 -0.82806724 9.775659e-037
-0.10398507 -0.13769531 0.51464844 -0.61611593 -0.2993246 -0.72856444 9.775659e-037
-0.10839844 -0.13418162 0.51464844 -0.38680154 -0.45629373 -0.80136162 9.775659e-037
-0.10839844 -0.13769531 0.51686823 -0.44820461 -0.37806463 -0.81004924 9.775659e-037
-0.10253906 -0.14941406 0.52035004 -0.59975964 -0.42680928 -0.67684728 9.775659e-037
-0.094867826 -0.14941406 0.51464844 -0.5336715 -0.35209849 -0.76890928 9.775659e-037
-0.096679688 -0.14727533 0.51464844 -0.50829512 -0.44626006 -0.73653781 9.775659e-037
-0.096679688 -0.14941406 0.51600921 -0.55467725 -0.37119809 -0.7446779 9.775659e-037
-0.090820313 -0.16113281 0.5185973 -0.49583393 -0.53440434 -0.68451506 9.775659e-037
-0.084073901 -0.16113281 0.51464844 -0.55751985 -0.38310438 -0.73647994 9.775659e-037
-0.084960938 -0.15983927 0.51464844 -0.52871108 -0.40184441 -0.74765348 9.775659e-037
-0.084960938 -0.16113281 0.51553613 -0.55328149 -0.41055062 -0.72479498 9.775659e-037
-0.029759526 -0.16113281 0.51464844 0.59266132 0.02755652 0.80498016 9.775659e-037
-0.032226563 -0.16113281 0.51804519 0.51979214 0.51979214 0.67796189 9.775659e-037
-0.096679688 -0.15527344 0.51903951 -0.62118644 -0.42002144 -0.66159612 9.775659e-037
-0.090611696 -0.15527344 0.51464844 -0.45773238 -0.40080547 -0.79362214 9.775659e-037
-0.090820313 -0.15500522 0.51464844 -0.46097806 -0.39521578 -0.79454619 9.775659e-037
-0.090820313 -0.15527344 0.51477343 -0.46092033 -0.40120506 -0.79157245 9.775659e-037
-0.028028369 -0.15527344 0.51464844 0.75682425 0.46217805 0.46217805 9.775659e-037
-0.1237936 -0.13183594 0.52050781 -0.38459077 -0.5282703 -0.75698113 9.775659e-037
-0.12597656 -0.12926996 0.52050781 -0.36411151 -0.44506145 -0.81813389 9.775659e-037
-0.12597656 -0.13183594 0.52230752 -0.27273595 -0.47777727 -0.83507138 9.775659e-037
-0.11618197 -0.14355469 0.52050781 -0.035485268 -0.60420078 -0.79604161 9.775659e-037
-0.11425781 -0.14279258 0.52050781 -0.15900898 -0.56673121 -0.80841309 9.775659e-037
-0.11425781 -0.14355469 0.52113378 -0.18646683 -0.52625138 -0.82963216 9.775659e-037
-0.10688829 -0.14355469 0.52050781 -0.51295817 -0.41133732 -0.75344247 9.775659e-037
-0.10839844 -0.14210033 0.52050781 -0.50897986 -0.41458353 -0.75436074 9.775659e-037
-0.10839844 -0.14355469 0.52145052 -0.49948055 -0.40122929 -0.76781136 9.775659e-037
-0.11425781 -0.14941406 0.52441889 -0.090758175 -0.60167223 -0.7935701 9.775659e-037
-0.10294867 -0.14941406 0.52050781 -0.59449166 -0.43833789 -0.67412126 9.775659e-037
-0.10839844 -0.14941406 0.52609718 -0.46898231 -0.55584359 -0.6863625 9.775659e-037
-0.10839844 -0.15527344 0.52629536 -0.42019767 -0.33247763 -0.8443296 9.775659e-037
-0.098813772 -0.15527344 0.52050781 -0.61128151 -0.50573838 -0.60873944 9.775659e-037
-0.10253906 -0.14965081 0.52050781 -0.60480875 -0.42579812 -0.67298019 9.775659e-037
-0.10253906 -0.15527344 0.52439368 -0.58705962 -0.50164008 -0.6353882 9.775659e-037
-0.092793226 -0.16113281 0.52050781 -0.52620196 -0.54844958 -0.64985734 9.775659e-037
-0.096679688 -0.15744066 0.52050781 -0.68154407 -0.48506895 -0.54791039 9.775659e-037
-0.096679688 -0.16113281 0.52283186 -0.55941278 -0.31590331 -0.76633054 9.775659e-037
-0.033773184 -0.16113281 0.52050781 0.50088716 0.61200982 0.61200982 9.775659e-037
-0.12574422 -0.13769531 0.52636719 -0.29794782 -0.68755174 -0.662193 9.775659e-037
-0.12597656 -0.13752103 0.52636719 -0.29733276 -0.68689126 -0.66315442 9.775659e-037
-0.12597656 -0.13769531 0.52654815 -0.29627529 -0.68544298 -0.66512322 9.775659e-037
-0.12879002 -0.13183594 0.52636719 -0.83550555 -0.3115724 -0.45260704 9.775659e-037
-0.13183594 -0.12644339 0.52636719 -0.88558847 -0.31114733 -0.34484839 9.775659e-037
-0.10862648 -0.15527344 0.52636719 -0.40812129 -0.32338148 -0.85373372 9.775659e-037
-0.11425781 -0.15250695 0.52636719 0.021777185 -0.42847767 -0.90328991 9.775659e-037
-0.11425781 -0.15527344 0.52792817 -0.15031615 -0.34631649 -0.92599678 9.775659e-037
-0.099625707 -0.16113281 0.52636719 -0.66131258 -0.11133084 -0.74180269 9.775659e-037
-0.10253906 -0.15677941 0.52636719 -0.56616038 -0.46698898 -0.67925233 9.775659e-037
-0.10253906 -0.16113281 0.53034908 -0.69072676 -0.32407615 -0.64642954 9.775659e-037
-0.12893236 -0.13769531 0.53222656 -0.72034299 -0.40169373 -0.56546271 9.775659e-037
-0.13183594 -0.13769531 0.53553808 -0.75162888 -0.33235171 -0.56973362 9.775659e-037
-0.13008821 -0.13183594 0.53222656 -0.81965303 -0.25514501 -0.51290345 9.775659e-037
-0.13183594 -0.12856305 0.53222656 -0.90941006 -0.019031698 -0.41546494 9.775659e-037
-0.13183594 -0.13183594 0.53435129 -0.8916589 -0.18752332 -0.41204292 9.775659e-037
-0.10716951 -0.16113281 0.53222656 -0.41747248 -0.52226245 -0.74361187 9.775659e-037
-0.10839844 -0.16046476 0.53222656 -0.33568698 -0.56007111 -0.75738674 9.775659e-037
-0.10839844 -0.16113281 0.53281778 -0.35148609 -0.55661672 -0.75275183 9.775659e-037
-0.13451254 -0.13769531 0.53808594 -0.74216187 -0.53706199 -0.40094918 9.775659e-037
-0.14941406 -0.12770426 0.53808594 -0.11776721 -0.64977539 -0.75094801 9.775659e-037
-0.14941406 -0.13183594 0.54199022 -0.15142857 -0.7307108 -0.66568094 9.775659e-037
-0.14355469 -0.12718189 0.53808594 -0.55769098 -0.56070799 -0.61203527 9.775659e-037
-0.14355469 -0.13183594 0.54243332 -0.32724226 -0.70800841 -0.62580872 9.775659e-037
-0.13636672 -0.13183594 0.53808594 -0.82069206 -0.10652611 -0.56135249 9.775659e-037
-0.13769531 -0.13001382 0.53808594 -0.79261678 -0.398738 -0.46126643 9.775659e-037
-0.13769531 -0.13183594 0.54134881 -0.95896733 -0.1881524 -0.21208531 9.775659e-037
-0.14122593 -0.14355469 0.54980469 -0.7021665 0.49546215 -0.51135057 9.775659e-037
-0.14941406 -0.13316727 0.54394531 -0.15515664 -0.77662462 -0.61055768 9.775659e-037
-0.14355469 -0.13285446 0.54394531 -0.36666864 -0.6517607 -0.66389912 9.775659e-037
-0.13604224 -0.13769531 0.54394531 -0.86284256 -0.00020774057 0.50547266 9.775659e-037
-0.13769531 -0.1342597 0.54394531 -0.38797224 -0.67868578 0.62358904 9.775659e-037
-0.13769531 -0.13769531 0.54771614 0.57613373 0.80630851 0.13392727 9.775659e-037
-0.14226139 -0.14355469 0.55566406 -0.72294325 -0.091468312 -0.68482596 9.775659e-037
-0.14355469 -0.14087582 0.55566406 -0.7246123 -0.39406568 -0.56537539 9.775659e-037
-0.14355469 -0.14355469 0.55834544 -0.97644353 -0.21548481 -0.011144604 9.775659e-037
-0.15048683 -0.13769531 0.54980469 -0.045061279 -0.72570121 -0.68653274 9.775659e-037
-0.14941406 -0.13722432 0.54980469 -0.1020198 -0.75488621 -0.64787251 9.775659e-037
-0.14941406 -0.13769531 0.55023658 -0.076425113 -0.74722821 -0.66015851 9.775659e-037
-0.14148366 -0.13769531 0.54980469 -0.093281806 -0.80099118 -0.59136426 9.775659e-037
-0.14355469 -0.13685238 0.54980469 -0.4923448 -0.69716388 -0.5211134 9.775659e-037
-0.14355469 -0.13769531 0.550942 -0.48366404 -0.69538438 -0.53151625 9.775659e-037
0.0029296875 -0.16113281 0.57610422 0.38783133 0.54174125 -0.74572331 9.775659e-037
-0.073242188 -0.14941406 0.57505566 0.17422377 -0.077505544 -0.98165107 9.775659e-037
-0.067382813 -0.14941406 0.57839823 0.58846629 0.28434628 -0.75687164 9.775659e-037
-0.061523438 -0.14941406 0.57901329 0.20790008 0.73947972 -0.64027125 9.775659e-037
-0.055664063 -0.14941406 0.57908624 0.081942417 0.79143602 -0.60573483 9.775659e-037
-0.026367188 -0.14941406 0.57810509 -0.17124341 0.66778499 -0.72438884 9.775659e-037
-0.020507813 -0.14941406 0.57893425 0.057469361 0.6031844 -0.79552871 9.775659e-037
-0.073242188 -0.15527344 0.57846814 0.17339042 -0.22196005 -0.95951515 9.775659e-037
-0.061523438 -0.15527344 0.57858354 -0.079391137 0.2406694 -0.96735483 9.775659e-037
-0.055664063 -0.15527344 0.57760829 -0.07701353 0.3984808 -0.91393757 9.775659e-037
-0.049804688 -0.15527344 0.57642847 0.0061113569 0.56236112 -0.82686919 9.775659e-037
-0.043945313 -0.15527344 0.57587492 -0.064079218 0.6370067 -0.76819032 9.775659e-037
-0.038085938 -0.15527344 0.57510108 -0.097846232 0.63090229 -0.76966769 9.775659e-037
-0.032226563 -0.15527344 0.57427669 -0.097317085 0.60542065 -0.78993374 9.775659e-037
-0.026367188 -0.15527344 0.57397652 0.054561149 0.60713083 -0.79272646 9.775659e-037
-0.020507813 -0.15527344 0.57405961 0.10352577 0.62569278 -0.7731694 9.775659e-037
-0.014648438 -0.15527344 0.57493836 0.1386061 0.59685856 -0.79028362 9.775659e-037
-0.0087890625 -0.15527344 0.57602203 0.24658199 0.54118675 -0.80393666 9.775659e-037
-0.0029296875 -0.15527344 0.57809132 0.30969679 0.49467906 -0.81202245 9.775659e-037
-0.043945313 -0.16113281 0.57269818 -0.16203679 0.59211308 -0.78939599 9.775659e-037
-0.038085938 -0.16113281 0.57034492 -0.086247176 0.66830301 -0.73887247 9.775659e-037
-0.032226563 -0.16113281 0.56926638 -0.025312658 0.66582614 -0.74567747 9.775659e-037
-0.026367188 -0.16113281 0.56869149 0.063367985 0.64329678 -0.76299 9.775659e-037
-0.020507813 -0.16113281 0.56948799 0.11272956 0.60314995 -0.78962159 9.775659e-037
-0.014648438 -0.16113281 0.57046765 0.18194598 0.57275242 -0.79928106 9.775659e-037
-0.0087890625 -0.16113281 0.57209957 0.26687288 0.55274069 -0.78946596 9.775659e-037
0.0029296875 -0.15527344 0.58051962 0.44218108 0.50793856 -0.73923898 9.775659e-037
0.0087890625 -0.15527344 0.58352095 0.46926373 0.54108053 -0.69787067 9.775659e-037
-0.067382813 -0.14355469 0.57662344 0.24574955 0.95841229 -0.14509666 9.775659e-037
0.0029296875 -0.14355469 0.58966529 0.3724657 0.56875372 -0.73334068 9.775659e-037
0.0029296875 -0.14941406 0.58399665 0.41070119 0.59598076 -0.69002277 9.775659e-037
-0.061523438 -0.14930713 0.57910156 0.20838399 0.74257141 -0.63652492 9.775659e-037
-0.055341005 -0.14941406 0.57910156 0.081328019 0.79422373 -0.60215801 9.775659e-037
-0.055664063 -0.14940572 0.57910156 0.08218123 0.79083687 -0.60648435 9.775659e-037
-0.049804688 -0.14941406 0.57936013 0.076456346 0.84342492 -0.53177881 9.775659e-037
-0.043945313 -0.14941406 0.58036816 0.076351859 0.88086176 -0.46717548 9.775659e-037
-0.038085938 -0.14941406 0.58003402 -0.11680037 0.82959962 -0.54600561 9.775659e-037
-0.032022119 -0.14941406 0.57910156 -0.16868344 0.72835433 -0.66411281 9.775659e-037
-0.032226563 -0.14941406 0.57913321 -0.17030148 0.73120433 -0.66055864 9.775659e-037
-0.026367188 -0.14895403 0.57910156 -0.14932086 0.66342008 -0.73319644 9.775659e-037
-0.018923521 -0.14941406 0.57910156 0.080491029 0.60451007 -0.79252052 9.775659e-037
-0.020507813 -0.14924288 0.57910156 0.057735614 0.61262369 -0.78826314 9.775659e-037
-0.014648438 -0.14941406 0.57951015 0.14337213 0.62398463 -0.76817167 9.775659e-037
-0.0087890625 -0.14941406 0.58026922 0.20644747 0.64592516 -0.73495585 9.775659e-037
-0.0029296875 -0.14941406 0.58182585 0.26232368 0.65671104 -0.707048 9.775659e-037
0.0083791018 -0.16113281 0.57910156 0.48564219 0.5051344 -0.71343589 9.775659e-037
0.0029296875 -0.15721726 0.57910156 0.40204763 0.51617658 -0.75625348 9.775659e-037
0.0087890625 -0.16113281 0.57932049 0.49559447 0.50150824 -0.7091372 9.775659e-037
0.014648438 -0.16113281 0.58360952 0.5917874 0.4617351 -0.66074824 9.775659e-037
-0.068469167 -0.15527344 0.57910156 -0.017515011 -0.013119782 -0.99976051 9.775659e-037
-0.066317081 -0.15527344 0.57910156 -0.053285372 0.080720253 -0.99531144 9.775659e-037
-0.067382813 -0.15409219 0.57910156 0.0038663077 0.097986341 -0.99518037 9.775659e-037
-0.067382813 -0.15527344 0.57921994 -0.04927728 0.036686301 -0.99811119 9.775659e-037
-0.049804688 -0.14988446 0.57910156 0.070646927 0.83260369 -0.54934508 9.775659e-037
-0.043945313 -0.15106642 0.57910156 0.028690165 0.83792228 -0.545035 9.775659e-037
-0.038085938 -0.15049613 0.57910156 -0.081705019 0.83256918 -0.54786199 9.775659e-037
-0.032226563 -0.14945579 0.57910156 -0.16890359 0.7324068 -0.65958464 9.775659e-037
-0.014648438 -0.14996636 0.57910156 0.13770458 0.61788374 -0.77411699 9.775659e-037
-0.0087890625 -0.15108979 0.57910156 0.20441146 0.61890781 -0.75839907 9.775659e-037
-0.00039565563 -0.15527344 0.57910156 0.37266141 0.47524226 -0.79703718 9.775659e-037
-0.0029296875 -0.15378904 0.57910156 0.29711366 0.53657973 -0.78981364 9.775659e-037
-0.067382813 -0.16113281 0.57898962 -0.039510522 -0.097518504 -0.99444914 9.775659e-037
-0.055664063 -0.16113281 0.57851505 -0.37452036 0.31209558 -0.8731156 9.775659e-037
-0.04501164 -0.16113281 0.57324219 -0.15992929 0.57148725 -0.80487561 9.775659e-037
-0.049804688 -0.16113281 0.57525539 -0.24617368 0.50099331 -0.82970124 9.775659e-037
-0.043945313 -0.15996039 0.57324219 -0.12793778 0.60731393 -0.78409296 9.775659e-037
-0.038085938 -0.1572715 0.57324219 -0.096883513 0.66123629 -0.74389535 9.775659e-037
-0.032226563 -0.15639246 0.57324219 -0.078952841 0.62370485 -0.77766234 9.775659e-037
-0.026367188 -0.15609694 0.57324219 0.039322294 0.60753363 -0.79332 9.775659e-037
-0.020507813 -0.1563834 0.57324219 0.1110493 0.61454737 -0.78102463 9.775659e-037
-0.014648438 -0.15751076 0.57324219 0.15038377 0.59110326 -0.79245299 9.775659e-037
-0.0047307014 -0.16113281 0.57324219 0.29379988 0.56533819 -0.77076226 9.775659e-037
-0.0087890625 -0.15941393 0.57324219 0.27400848 0.56108391 -0.78109169 9.775659e-037
-0.0029296875 -0.16113281 0.57382685 0.30026758 0.56716639 -0.76691705 9.775659e-037
0.010998368 -0.15527344 0.58496094 0.51121217 0.50737327 -0.69371057 9.775659e-037
0.0087890625 -0.153427 0.58496094 0.4526653 0.53791517 -0.71115488 9.775659e-037
0.014648438 -0.15527344 0.58767211 0.58358622 0.48610917 -0.65048057 9.775659e-037
-0.06481576 -0.14355469 0.57910156 0.22591087 0.94460744 -0.23807779 9.775659e-037
-0.067382813 -0.14262378 0.57910156 0.24118434 0.93622702 -0.25555652 9.775659e-037
-0.026367188 -0.14355469 0.58421695 -0.43362659 0.74746978 -0.50324613 9.775659e-037
-0.020507813 -0.14355469 0.5834741 0.045083947 0.5631479 -0.82512546 9.775659e-037
-0.014648438 -0.14355469 0.58399665 0.21413676 0.64369118 -0.7347157 9.775659e-037
0.0053316355 -0.14355469 0.59082031 0.45665446 0.5627386 -0.68905145 9.775659e-037
0.0029296875 -0.1420728 0.59082031 0.36961928 0.61856353 -0.69336909 9.775659e-037
0.0087890625 -0.14355469 0.59254551 0.5374034 0.56419867 -0.62679935 9.775659e-037
0.0029296875 -0.13769531 0.59411776 0.48726743 0.64811426 -0.58525079 9.775659e-037
0.0043781996 -0.14941406 0.58496094 0.42598963 0.56788516 -0.70430058 9.775659e-037
0.0029296875 -0.14836168 0.58496094 0.38768667 0.59898275 -0.70065582 9.775659e-037
0.0087890625 -0.14941406 0.58810574 0.47943661 0.57164091 -0.66585821 9.775659e-037
-0.061523438 -0.14396858 0.58496094 0.013325306 0.91412508 -0.40521318 9.775659e-037
-0.055664063 -0.14465785 0.58496094 0.06401962 0.84723461 -0.52734709 9.775659e-037
-0.049804688 -0.14578152 0.58496094 0.23311211 0.78774625 -0.57018811 9.775659e-037
-0.043945313 -0.14661527 0.58496094 -0.065035619 0.73896533 -0.67059708 9.775659e-037
-0.038085938 -0.14701033 0.58496094 -0.2630685 0.709993 -0.65322644 9.775659e-037
-0.032226563 -0.14532256 0.58496094 -0.15058655 0.87168294 -0.4663609 9.775659e-037
-0.0087890625 -0.14389348 0.58496094 0.16897567 0.62574112 -0.76150852 9.775659e-037
-0.0029296875 -0.14593995 0.58496094 0.31450808 0.59581101 -0.73898166 9.775659e-037
0.016220927 -0.16113281 0.58496094 0.60895973 0.44733372 -0.65502715 9.775659e-037
0.014648438 -0.1591506 0.58496094 0.58122486 0.47050655 -0.66392869 9.775659e-037
0.020507813 -0.16113281 0.58901358 0.68459088 0.43401858 -0.58563042 9.775659e-037
-0.020507813 -0.13769531 0.58810467 -0.32262632 0.68751395 -0.65056652 9.775659e-037
-0.014648438 -0.13769531 0.58890873 0.36373958 0.60782367 -0.70586395 9.775659e-037
-0.0087890625 -0.13769531 0.59061724 -0.019172613 0.71958667 -0.69413793 9.775659e-037
-0.020507813 -0.13183594 0.59477931 -0.021305038 0.97590417 -0.21715686 9.775659e-037
-0.014648438 -0.13183594 0.59250307 -0.19729412 0.91168135 -0.36043343 9.775659e-037
-0.0029296875 -0.13183594 0.59579033 0.37508327 0.87748128 -0.2988967 9.775659e-037
-0.073505402 -0.16113281 0.57910156 0.0066988342 -0.069457084 -0.99756247 9.775659e-037
-0.068762064 -0.16113281 0.57910156 -0.045246843 -0.040773623 -0.99814337 9.775659e-037
-0.073242188 -0.15813935 0.57910156 0.044207662 -0.12707664 -0.99090737 9.775659e-037
-0.073242188 -0.16113281 0.57968152 -0.057738423 -0.058544386 -0.99661368 9.775659e-037
-0.06662786 -0.16113281 0.57910156 -0.082808144 -0.125223 -0.98866683 9.775659e-037
-0.067382813 -0.15770197 0.57910156 -0.14800663 -0.02129128 -0.98875719 9.775659e-037
-0.057850838 -0.16113281 0.57910156 -0.32985207 0.1817781 -0.92636609 9.775659e-037
-0.061523438 -0.15714896 0.57910156 -0.13329758 0.15923516 -0.97820032 9.775659e-037
-0.061523438 -0.16113281 0.58002234 -0.32757333 0.031032536 -0.94431591 9.775659e-037
0.018321991 -0.15527344 0.59082031 0.67376196 0.50099778 -0.54318142 9.775659e-037
0.014648438 -0.15080285 0.59082031 0.60181141 0.54602075 -0.58282447 9.775659e-037
0.020507813 -0.15527344 0.59299982 0.68611562 0.48729667 -0.54017341 9.775659e-037
